ply
format ascii 1.0
comment Created by Open3D
element vertex 500
property double x
property double y
property double z
property double nx
property double ny
property double nz
end_header
-34.2708 -28.964 16.1661 -0.176153 -0.983453 -0.0267812
-46.4094 25.722 17.4044 -0.339839 0.933264 -0.108884
-23.3984 -20.6958 1.00345 -0.111301 -0.550088 -0.82497
-10.5531 21.0403 -0.0775584 -0.0592131 0.528031 -0.843946
43.0106 4.42604 61.0747 0.608785 0.46748 0.581274
36.5566 3.14038 65.9669 0.594969 0.442426 0.610613
80.3689 6.80278 34.9978 0.779826 0.385539 0.461207
83.5617 10.5799 31.0107 0.721422 0.539776 0.412193
53.1511 6.34208 53.3732 0.629353 0.502561 0.534948
73.5918 8.90261 38.5292 0.699372 0.514303 0.456495
19.6969 2.18727 77.6444 0.513744 0.484996 0.662842
66.6541 7.7509 43.751 0.68359 0.49729 0.487105
60.7322 10.7989 45.215 0.543295 0.661362 0.455017
75.5957 16.6763 30.2371 0.446671 0.806425 0.361388
38.0012 7.92134 61.4416 0.460487 0.637036 0.547391
28.8864 6.24538 68.4813 0.446832 0.60865 0.590095
41.1551 10.8318 55.8978 0.360512 0.696228 0.555508
22.9743 6.5952 71.0974 0.371938 0.61912 0.635192
13.2276 3.99513 79.7262 0.394662 0.572735 0.67064
65.8065 15.3729 37.0456 0.405756 0.782315 0.420854
39.1423 -12.0522 57.5914 0.368014 -0.693228 0.553038
78.0997 -17.6575 27.77 0.437333 -0.826607 0.339547
72.59 -17.5222 30.9657 0.392332 -0.818982 0.384847
53.2624 -13.8601 47.1305 0.405117 -0.737746 0.470517
34.4165 -11.0684 61.6813 0.375874 -0.671854 0.571953
57.9446 -15.1687 42.5593 0.379456 -0.764631 0.459447
69.1085 -15.0294 36.4252 0.479802 -0.760577 0.386169
45.9203 -11.6421 54.4301 0.448812 -0.687547 0.495784
-2.13394 -3.85479 92.6922 0.415212 -0.513046 0.727919
51.6956 -10.4023 52.2788 0.538284 -0.632448 0.490087
67.0383 -11.3276 41.6164 0.609181 -0.624965 0.438599
30.2369 -7.74826 68.4642 0.491091 -0.584401 0.584499
81.6725 -13.1187 30.5961 0.642089 -0.656917 0.374524
76.2365 -12.4842 34.6609 0.628689 -0.646372 0.397818
88.0359 -11.0998 27.795 0.741305 -0.540141 0.389646
72.8714 -9.12074 39.2575 0.709378 -0.500552 0.457712
41.6333 -7.60231 61.1639 0.569978 -0.540362 0.559188
20.5146 -4.77931 77.1718 0.52744 -0.482055 0.654995
58.1218 -9.15823 49.0979 0.621844 -0.555138 0.494202
81.0547 -7.8308 34.2337 0.774122 -0.413391 0.44798
11.1205 -3.25659 84.3075 0.508122 -0.444776 0.698197
6.3292 -2.02242 87.9351 0.595852 -0.0219162 0.773421
73.4479 -2.06127 41.0909 0.821241 -0.0930063 0.51607
84.2237 0.861116 33.6849 0.861356 0.0549173 0.477708
77.5192 2.31143 38.1522 0.830522 0.140276 0.499838
-9.54028 9.7642 73.0443 -0.00642047 0.833832 0.51521
-12.0802 7.0214 79.5085 -0.00572025 0.812882 0.548213
-11.76 3.12156 89.1084 0.00692498 0.771004 0.614279
-11.8124 12.131 67.0022 -0.0202512 0.865638 0.464999
-8.83415 16.5553 56.4587 -0.0246961 0.902872 0.406316
-16.008 14.216 61.4514 -0.0389363 0.900404 0.410084
-20.0863 12.1738 66.0369 -0.0448955 0.891532 0.424007
-27.2322 12.0965 65.3004 -0.133442 0.887064 0.426612
-23.2947 8.14348 75.4506 -0.0936549 0.839888 0.501864
-71.9991 0.181029 44.8097 -0.717737 0.0901743 0.660662
-43.9868 -1.11721 71.7025 -0.625521 0.00266156 0.758715
-64.9165 0.112501 51.5681 -0.685884 0.112873 0.683554
60.0487 17.3543 36.6132 0.210997 0.845282 0.46947
71.3081 20.1524 26.9256 0.245023 0.86295 0.434709
63.402 20.0815 30.3162 0.189877 0.86523 0.4526
44.4592 13.8608 49.3664 0.155408 0.823806 0.517884
48.6225 17.1503 41.582 0.142712 0.847635 0.488597
37.2273 14.134 51.6263 0.116832 0.828558 0.520086
62.6181 23.1837 24.617 0.161808 0.890241 0.421691
26.1017 10.3033 63.1927 0.0964324 0.802643 0.561535
4.97304 3.93398 83.3521 0.0530258 0.760917 0.629039
52.1172 19.0655 36.5363 0.145141 0.861626 0.467033
55.4276 21.1679 31.1747 0.146253 0.877296 0.442783
39.7523 16.9551 45.0952 0.114747 0.853572 0.483566
12.9011 8.28002 71.7888 0.0644451 0.792882 0.579161
-6.81555 0.771278 93.7567 0.0290264 0.739791 0.663244
33.2358 17.1393 46.743 0.0981261 0.850846 0.485781
20.1666 12.7058 60.1363 0.0752386 0.819429 0.536574
41.4782 22.041 33.7772 0.111773 0.881847 0.43724
24.608 14.1389 55.7427 0.0830442 0.829715 0.519889
48.2555 22.9585 29.7969 0.124159 0.890799 0.421731
33.7994 19.8861 40.6726 0.0986977 0.865873 0.463184
43.6962 25.4616 25.7539 0.116288 0.901639 0.406584
34.3263 22.3759 35.1393 0.101038 0.879817 0.441452
26.4751 17.0673 48.8882 0.0865169 0.846582 0.493912
24.8716 24.1736 33.8196 0.082815 0.912788 0.392387
31.8602 25.2551 29.527 0.0958166 0.911077 0.393843
3.8658 14.9812 59.7271 0.0455147 0.859146 0.478241
12.6403 17.9243 50.8678 0.0613642 0.872681 0.455997
7.41488 11.9325 65.4223 0.0531944 0.822679 0.533622
17.4291 21.4762 41.7742 0.0694317 0.899318 0.414309
-1.62345 4.74426 83.6459 0.0381127 0.767611 0.61966
16.3739 15.2192 55.7601 0.0692929 0.839286 0.506631
11.1201 21.0364 44.4749 0.057534 0.906172 0.404845
9.04689 16.154 55.7327 0.0550425 0.861548 0.473688
12.4555 13.5421 60.5105 0.0623236 0.829652 0.522075
18.7849 18.6395 47.6094 0.072866 0.868845 0.460856
5.02249 8.53295 73.5223 0.0496504 0.793293 0.579127
-1.70124 10.5062 70.9268 0.035217 0.824908 0.531492
-5.38711 18.9318 50.9103 0.00513393 0.917835 0.384753
-4.79614 8.07355 76.9316 0.028678 0.806537 0.559894
0.147857 13.1422 64.5016 0.0367953 0.847874 0.495664
-3.68513 15.1566 59.8761 0.0187978 0.876095 0.45067
4.31217 20.608 46.362 0.0373382 0.915103 0.390588
91.5813 2.10014 28.1939 0.928445 0.115106 0.244551
72.1151 23.8659 18.1169 0.377101 0.900714 0.188111
76.6117 20.7219 22.6413 0.392336 0.865785 0.292845
-37.3006 -22.6768 32.8409 -0.182565 -0.901025 0.359949
-32.2794 -19.0335 45.3893 -0.142284 -0.873229 0.416286
-35.7411 -26.8405 22.4673 -0.171445 -0.932414 0.312917
-18.9171 -9.14546 79.066 -0.0336523 -0.798194 0.567279
-25.5393 -19.2811 48.0845 -0.0877928 -0.875252 0.427661
-24.7033 -13.731 63.7186 -0.0810883 -0.832892 0.498487
-25.8513 -23.8906 34.8861 -0.0953727 -0.910007 0.367021
-26.007 -21.4174 41.8736 -0.0931811 -0.891408 0.399298
-22.0276 -17.8428 53.3866 -0.0631386 -0.864105 0.450563
-27.6562 -27.0197 25.3722 -0.110941 -0.933739 0.323987
-17.3396 -11.4686 73.1069 -0.0249593 -0.81566 0.539336
-19.6686 -25.3255 32.5013 -0.0615963 -0.920865 0.350993
-19.5518 -21.0246 45.0043 -0.0530343 -0.888086 0.409876
-18.3688 -16.43 58.575 -0.0385815 -0.853218 0.472448
-13.4141 -14.9311 63.8184 -0.0126138 -0.841404 0.49464
-13.1195 -19.9074 49.3496 -0.0217469 -0.878489 0.429056
-12.9392 -28.7526 23.5967 -0.0391692 -0.944706 0.311556
-10.5825 -25.8865 32.187 -0.0251633 -0.921143 0.356143
-9.58385 -21.7327 44.3828 -0.0133395 -0.889102 0.414227
-3.7901 -27.7999 26.983 -0.00965573 -0.929587 0.348234
-3.04434 -25.8242 32.7457 -0.00393405 -0.914113 0.376446
-9.55501 -12.9613 69.8465 0.00343349 -0.823259 0.531096
-12.3173 -4.69283 93.7477 0.0119105 -0.763619 0.634141
-9.30384 -23.8063 38.3735 -0.0165506 -0.904419 0.387331
-2.3133 -30.2788 19.8413 -0.0104917 -0.946903 0.318998
-8.27577 -18.4474 53.9677 -0.00364644 -0.863312 0.461312
-6.04215 -16.5853 59.4344 0.00560067 -0.847677 0.490979
-0.686654 -19.5772 50.7426 0.012318 -0.868222 0.456671
-2.9227 -23.2935 40.0697 0.000983002 -0.895382 0.409379
-8.65007 -8.56601 82.5685 0.0136033 -0.790442 0.589119
-0.539559 -15.2387 63.1249 0.0161249 -0.837371 0.509908
5.1128 -22.1967 42.9819 0.0158548 -0.886489 0.426398
3.86033 -25.1563 34.6095 0.0127894 -0.907538 0.389829
9.64417 -25.9992 31.8967 0.0168712 -0.913271 0.381174
6.96626 -28.1899 25.7932 0.0131894 -0.928925 0.353605
0.455525 -17.4733 56.6997 0.0153763 -0.85318 0.482853
1.33777 -13.1665 68.9135 0.0307509 -0.827953 0.507503
7.20642 -17.3932 56.5369 0.0385852 -0.860459 0.442846
26.5408 -31.0896 16.4126 0.0654017 -0.966316 0.230575
9.27873 -23.6979 38.4752 0.0201731 -0.897879 0.40438
11.468 -21.2164 45.4047 0.0409564 -0.888127 0.393445
19.029 -24.978 34.2501 0.0584611 -0.920928 0.315614
14.4304 -28.3039 25.0623 0.0231083 -0.931242 0.344713
21.172 -29.2641 21.9273 0.0492512 -0.947584 0.283093
23.434 -20.4174 45.6157 0.0990592 -0.905713 0.373316
20.2981 -15.1364 60.2463 0.108471 -0.872947 0.452759
15.4263 -19.3783 49.9137 0.0671223 -0.885519 0.394212
2.18323 -10.3558 76.4237 0.0471506 -0.814873 0.535555
8.22916 -12.5662 69.3913 0.0648519 -0.837391 0.498933
28.3527 -18.3026 50.2889 0.131057 -0.904076 0.400731
17.594 -22.3904 41.4962 0.0634877 -0.904913 0.348631
-3.35632 -7.18696 85.9052 0.036075 -0.788408 0.585831
22.5244 -17.8784 52.5349 0.106319 -0.891072 0.411085
13.4131 -15.7727 59.8781 0.0741325 -0.863386 0.44836
25.3685 -23.0548 38.2384 0.0960434 -0.922762 0.333379
24.4913 -27.2559 27.2472 0.0731409 -0.942556 0.272584
53.0487 -18.8001 38.2794 0.183925 -0.872844 0.437655
2.82972 -7.77361 82.8921 0.0591241 -0.799329 0.575621
19.4699 -12.1318 66.715 0.101945 -0.833675 0.514649
14.0317 -11.0057 71.4115 0.0885723 -0.826677 0.528117
8.73968 -8.37525 79.0196 0.0723607 -0.798115 0.574456
31.7528 -14.2857 56.8783 0.131338 -0.843958 0.492664
39.8398 -16.8829 48.0679 0.153148 -0.867442 0.452656
45.6951 -17.4475 44.2934 0.166196 -0.865793 0.452184
68.2313 -20.9397 27.1552 0.219167 -0.878145 0.421801
63.2558 -18.2818 34.5163 0.234623 -0.854702 0.443014
76.1534 -21.0584 22.1761 0.395108 -0.871279 0.274099
43.2523 29.9978 10.846 0.131035 0.988734 0.00272407
34.5029 -31.3477 12.792 0.0994458 -0.99237 0.0563827
-1.69797 22.9868 40.189 0.00111482 0.936639 0.349878
-8.36038 24.5617 35.5151 -0.0320105 0.941201 0.334845
-9.27415 29.7053 21.114 -0.0302868 0.950148 0.309869
-6.6582 31.444 15.8067 -0.0363969 0.976714 0.200523
-53.1615 14.8741 41.037 -0.436716 0.838997 0.28225
-39.1284 13.1626 55.2037 -0.35751 0.83821 0.389534
-63.2166 16.646 29.9447 -0.491237 0.843327 0.200679
-57.5247 15.3465 36.7356 -0.461587 0.838829 0.249408
-47.0218 13.7789 47.8332 -0.403479 0.836261 0.332173
-28.0632 2.74797 81.4561 -0.426847 0.598662 0.606465
-30.8451 7.60135 71.136 -0.377167 0.717338 0.51944
-44.4082 9.53434 57.0426 -0.439229 0.744881 0.4057
-58.7898 11.7145 41.8811 -0.503209 0.777396 0.283231
-22.079 4.66741 83.053 -0.360644 0.656815 0.617027
-33.0304 3.94878 75.4731 -0.442674 0.621249 0.557767
-52.8051 10.0681 49.4226 -0.486936 0.745119 0.34476
-38.7208 9.73538 61.266 -0.39904 0.758985 0.438937
-19.4323 2.30917 89.1055 -0.376274 0.601202 0.667535
-64.2542 12.9447 35.4506 -0.521892 0.79994 0.230956
-50.8603 6.50779 56.6219 -0.419059 0.662956 0.592417
-40.3567 5.02066 67.7164 -0.405884 0.626884 0.636136
-65.0452 8.50755 41.6198 -0.436371 0.711684 0.533614
-60.3714 7.33758 47.3146 -0.433768 0.690879 0.556329
-70.9183 5.60728 40.6449 -0.457845 0.699044 0.53711
-26.4209 -0.161747 87.2374 -0.408315 0.549202 0.715095
-74.6057 7.79989 34.4034 -0.458225 0.725838 0.508219
-46.3475 2.6297 66.0838 -0.430043 0.618048 0.633675
-66.6186 4.27557 46.2027 -0.463146 0.669529 0.564275
-53.2533 2.06128 60.8354 -0.458736 0.610514 0.625591
-39.1194 -0.341213 76.0967 -0.497733 0.470387 0.704615
63.2927 26.2654 17.1687 0.179699 0.947007 0.261163
57.7622 25.7074 20.9054 0.145945 0.915848 0.369439
28.4161 29.0041 21.4168 0.07863 0.946928 0.298088
25.0815 26.948 27.2799 0.0757951 0.9332 0.343611
34.8939 28.2992 21.7985 0.0914475 0.923523 0.370998
91.2976 1.1649 18.64 0.973027 0.0634429 -0.195377
72.6849 -23.5522 13.7091 0.484848 -0.868921 -0.0457616
-23.2528 12.9818 -3.03719 -0.0984605 0.394356 -0.904776
-16.4884 15.9337 -2.3318 -0.0745013 0.431416 -0.89347
-16.4493 9.71805 -5.11696 -0.0722994 0.341138 -0.926692
-50.7377 -2.96375 64.1293 -0.544977 -0.616858 0.467419
-73.9906 -4.70764 39.7342 -0.494404 -0.679399 0.534058
-19.5378 -2.35833 94.6982 -0.403233 -0.550169 0.725325
-68.272 -5.49749 44.0115 -0.465506 -0.691651 0.53819
-55.3373 -4.2421 58.0733 -0.456848 -0.643582 0.594357
-62.865 -6.0119 48.3669 -0.45362 -0.686364 0.550169
-75.8735 -7.76042 33.4919 -0.468027 -0.732086 0.492176
-44.2426 -5.80362 66.2358 -0.426096 -0.640854 0.613968
-56.5722 -8.36113 50.7284 -0.438122 -0.694649 0.541939
-32.4382 -5.354 77.9585 -0.425423 -0.615246 0.61671
-69.5102 -11.9573 32.8811 -0.49515 -0.776153 0.340729
-45.769 -8.96854 59.7182 -0.481884 -0.697442 0.416768
-59.6707 -10.1469 44.9401 -0.475181 -0.732311 0.418671
-51.1457 -8.7901 55.0411 -0.463239 -0.698482 0.469006
-61.2108 -13.0261 38.6392 -0.519049 -0.784402 0.249051
-63.1705 -15.7 31.9741 -0.508545 -0.821819 0.201854
-62.4972 -17.3438 14.8017 -0.506593 -0.843243 -0.0649248
-54.9928 -22.4562 19.7882 -0.367501 -0.922859 0.11035
-45.7843 -25.5595 19.4506 -0.273898 -0.935273 0.213989
-27.677 6.83447 -5.36179 -0.112521 0.3027 -0.937013
-24.8247 0.769772 -8.41644 -0.0991242 0.212062 -0.971787
-22.7795 -29.5317 19.529 -0.0869165 -0.955813 0.276076
-16.6357 -30.1843 18.7224 -0.0602789 -0.962606 0.258079
-8.87795 -31.1837 16.4403 -0.0411924 -0.973823 0.213997
-32.9726 12.9448 60.3022 -0.261458 0.885898 0.376286
-47.2346 20.1535 32.662 -0.283586 0.903855 0.294525
-53.7755 21.3088 25.2478 -0.332172 0.897958 0.260875
-40.7985 15.3376 49.0264 -0.2571 0.900996 0.314023
-40.417 18.4271 41.6771 -0.23597 0.908772 0.327668
5.97535 -31.5317 16.1701 0.00312031 -0.960529 0.27497
17.6868 -31.1756 16.6726 0.0395177 -0.958722 0.272269
53.7858 28.0008 15.2511 0.155017 0.964245 0.194991
34.2665 -29.2446 19.7489 0.101193 -0.952871 0.273974
31.9583 -24.0616 34.1366 0.117964 -0.931542 0.331863
30.9594 -26.6429 27.5494 0.10356 -0.946994 0.286219
41.237 -29.5653 16.9869 0.118297 -0.93903 0.322466
37.5679 -25.4116 28.977 0.125622 -0.926197 0.353389
40.7167 -27.0775 23.6062 0.123796 -0.928195 0.349617
48.1217 -27.8221 19.118 0.132535 -0.932249 0.335832
39.9965 -22.3214 36.0658 0.135889 -0.914577 0.380505
44.5028 -24.2177 29.6125 0.134789 -0.917746 0.373247
56.4252 -24.4824 24.4406 0.149897 -0.914406 0.375752
63.419 -23.5756 23.702 0.171284 -0.902268 0.395112
38.2341 -20.0451 42.3762 0.143287 -0.908211 0.392949
48.2926 -21.9488 33.7982 0.149648 -0.909239 0.388185
56.4183 -20.6529 33.0634 0.18994 -0.891503 0.408683
-51.2796 -14.2948 44.3175 -0.324502 -0.848265 0.298652
-25.0974 -9.31546 74.9383 -0.0839238 -0.80058 0.54151
-44.9002 -14.3512 48.6427 -0.262666 -0.845386 0.354426
-48.6239 -21.865 27.481 -0.279629 -0.899012 0.301668
-32.942 -10.7867 65.8148 -0.156056 -0.814725 0.468802
-34.9715 -15.699 52.2631 -0.163231 -0.849578 0.437859
-50.6849 -18.2802 34.8914 -0.308648 -0.875393 0.293196
-35.9235 -13.0232 58.2051 -0.17922 -0.831647 0.436677
-43.8065 -21.5363 31.6642 -0.233874 -0.894283 0.344779
-38.7013 -9.94921 63.8523 -0.213877 -0.811911 0.420554
-41.4344 -18.1355 41.7228 -0.219555 -0.869659 0.374679
-60.1032 -18.9206 26.7182 -0.398106 -0.884626 0.208915
-21.7589 -6.29577 84.7321 -0.0592931 -0.778085 0.578862
-31.8302 -8.62911 71.9212 -0.150774 -0.799305 0.484325
-26.0045 29.1766 19.6308 -0.107606 0.946646 0.302453
-33.9054 22.3181 35.5499 -0.173216 0.92602 0.332921
-30.8429 19.0152 45.9218 -0.161724 0.922205 0.349076
-33.3466 16.247 51.9605 -0.189443 0.91295 0.359005
-40.3899 21.2088 34.7554 -0.221498 0.915343 0.333098
-44.2591 24.3468 24.2329 -0.237944 0.917619 0.317115
-38.3719 24.4143 27.6644 -0.199255 0.925447 0.320866
-57.5008 21.2295 20.143 -0.462363 0.882489 -0.0280009
-64.7802 -16.831 21.8867 -0.515226 -0.838866 0.0804794
-72.7262 11.6639 28.3957 -0.583043 0.783673 0.131612
37.8017 30.2941 15.9993 0.103567 0.946631 0.298657
17.7566 30.9571 17.3004 0.0346507 0.954072 0.290025
20.8522 29.1301 22.2809 0.0425891 0.958184 0.273035
17.9759 26.6021 29.5909 0.0335755 0.954613 0.286488
11.3964 24.1291 36.9779 0.00924878 0.942066 0.33512
12.1256 29.7266 21.1174 0.0147961 0.943802 0.330138
77.6227 -20.0209 16.108 0.544597 -0.777755 -0.229709
-79.9247 -1.48573 37.0854 -0.716796 -0.266904 0.618688
78.8204 19.0713 16.1988 0.569675 0.768032 -0.214268
80.2005 10.4971 5.28264 0.603788 0.520354 -0.544929
75.7648 15.7958 5.67716 0.522272 0.618885 -0.514933
76.0975 10.4 -0.466307 0.522842 0.500797 -0.61909
81.5331 14.0764 11.4894 0.634014 0.605278 -0.44851
84.7957 0.0760614 3.24126 0.752309 0.0428247 -0.576957
32.1685 31.7942 11.5948 0.0912914 0.994121 0.0443586
-68.4702 -13.2898 17.1439 -0.604791 -0.709987 -0.146817
89.5389 8.89553 27.3917 0.86931 0.436435 0.087101
67.2268 -25.3457 17.95 0.192061 -0.946289 0.254004
58.9806 -26.5768 18.1297 0.161806 -0.938673 0.298226
75.8957 5.14994 -4.63784 0.432504 0.40333 -0.732292
70.0043 14.7156 1.33328 0.220605 0.622096 -0.642656
71.3534 21.1438 6.72688 0.359165 0.750809 -0.482663
76.9131 -14.5596 5.74072 0.545305 -0.586627 -0.522192
75.8356 -19.2268 9.97097 0.527752 -0.693636 -0.444092
81.7125 -6.03889 1.90444 0.632077 -0.409184 -0.613581
67.9905 25.7937 12.9821 0.228671 0.971867 -0.0292799
-11.1908 5.15835 -7.47249 -0.0509925 0.270891 -0.953954
90.2042 -6.59854 19.8877 0.923936 -0.338144 -0.155275
-2.09923 28.9465 23.554 -0.0119232 0.94431 0.328363
-7.43527 27.2793 28.0385 -0.0263713 0.945304 0.324192
-4.62442 17.5405 -2.24275 -0.0306769 0.440232 -0.893919
-7.87403 10.1743 -5.41299 -0.0400233 0.339989 -0.929569
-69.7666 12.1302 17.1205 -0.618995 0.696071 -0.158803
-76.7946 7.12732 24.7871 -0.667064 0.685747 -0.0134392
83.0599 16.3158 21.4992 0.632003 0.770925 -0.0480455
87.1549 -8.87099 13.5653 0.787893 -0.453943 -0.414673
58.4062 3.43673 -8.57699 0.115915 0.31163 -0.938943
25.4521 13.1253 -4.30558 0.0389012 0.392213 -0.912281
16.1523 14.6805 -3.64039 0.00702658 0.394238 -0.91239
39.1215 2.86116 -8.93913 0.0171263 0.249048 -0.963782
46.0546 3.13659 -8.77754 0.0532316 0.272751 -0.954409
19.4409 21.2824 -0.235187 0.0380553 0.551164 -0.791425
50.3577 10.3589 -5.18767 0.10658 0.434115 -0.849839
67.807 1.4407 -9.42642 0.142508 0.303651 -0.938037
30.2627 21.8763 0.347689 0.0664479 0.613533 -0.723249
40.3995 14.2936 -3.37419 0.0849235 0.481555 -0.822672
33.0955 13.1171 -4.17434 0.0649865 0.421314 -0.884248
46.5119 16.0447 -2.30266 0.102373 0.549899 -0.755765
43.9815 8.71035 -6.21205 0.0885553 0.366989 -0.91606
63.0556 13.5583 -1.19543 0.161617 0.566016 -0.714472
35.9393 30.3192 5.70264 0.097018 0.836538 -0.522326
48.2797 23.3647 3.09157 0.128775 0.72919 -0.59581
56.8969 13.54 -2.62971 0.133543 0.537888 -0.750145
41.1696 26.4005 3.83405 0.107075 0.768299 -0.573608
65.1946 8.36274 -4.77848 0.153142 0.453975 -0.809945
55.5675 19.4819 1.72556 0.148316 0.671047 -0.634556
64.7238 23.7344 7.17288 0.204859 0.811805 -0.493908
55.2763 27.7848 8.49982 0.17999 0.914679 -0.299494
85.0536 5.54034 6.69483 0.736189 0.373831 -0.525324
81.1755 1.39196 -4.19637 0.626137 0.303362 -0.701597
-71.3889 -11.7642 22.6503 -0.604968 -0.73664 -0.020629
-79.1251 -4.05324 24.3958 -0.788068 -0.525255 -0.308953
-69.7628 -10.5576 11.4831 -0.702941 -0.543766 -0.425071
-75.7461 -5.93254 19.1561 -0.791952 -0.39971 -0.410563
-60.9675 4.31235 1.30038 -0.505682 0.151781 -0.807829
-51.4498 -3.50579 -2.84529 -0.313352 -0.229975 -0.897971
-56.933 -6.40908 -0.407608 -0.397451 -0.29603 -0.834941
-39.9094 -12.5936 -1.0381 -0.221219 -0.438574 -0.845066
-45.8767 -8.4204 -2.07019 -0.276697 -0.37513 -0.84379
-34.0066 -6.85226 -4.54418 -0.139514 -0.318979 -0.927545
-47.0699 -14.5629 0.928697 -0.306506 -0.491096 -0.785959
-54.2147 -15.4451 2.39985 -0.388398 -0.523223 -0.735719
-32.3957 -15.2684 -0.872211 -0.141885 -0.468234 -0.866295
-39.7664 -17.9624 1.71785 -0.246217 -0.539305 -0.78272
-60.2268 -17.2577 5.28348 -0.323847 -0.794912 -0.501955
-57.1708 -20.0195 11.8924 -0.361143 -0.849526 -0.325112
26.4417 -32.13 7.45108 -0.00823494 -0.998943 -0.0416815
15.6418 -32.0913 10.1258 -0.0137344 -0.929515 -0.253255
32.7653 -31.6267 6.65271 0.0973427 -0.985763 -0.0814576
64.2075 -8.27485 -5.07503 0.148344 -0.447477 -0.817424
60.5652 -26.8547 8.6622 0.196876 -0.866169 -0.453039
64.8763 -15.4106 0.677625 0.176387 -0.61758 -0.665629
67.4813 -25.007 8.80709 0.221856 -0.854007 -0.451718
51.2603 -27.5083 7.02966 0.156848 -0.839624 -0.492811
47.8985 -22.8645 2.61124 0.125289 -0.715762 -0.608367
51.1481 -17.8279 -0.591056 0.122421 -0.612439 -0.69418
59.2357 -17.8994 1.32976 0.159454 -0.65049 -0.646348
44.5762 -28.7256 6.44366 0.130714 -0.838067 -0.505874
54.9337 -22.7965 4.17991 0.157046 -0.745812 -0.56946
61.9615 -3.48953 -8.4987 0.129536 -0.325396 -0.927324
20.1276 -17.4791 -2.21229 0.036025 -0.465268 -0.864156
35.633 -24.4183 1.81534 0.0827796 -0.697056 -0.644333
43.5929 -10.249 -5.41497 0.089092 -0.401242 -0.887212
57.543 -8.31947 -6.07685 0.123003 -0.418592 -0.853398
41.9316 -20.3758 -0.146456 0.094927 -0.630701 -0.692688
23.3478 -23.0352 0.781916 0.0498402 -0.609668 -0.73595
35.7252 -18.689 -1.18666 0.0773007 -0.563439 -0.758795
52.2025 -11.076 -4.76537 0.112034 -0.459155 -0.825861
29.9787 -16.2427 -2.61353 0.060098 -0.480472 -0.837746
29.4113 -27.0326 3.03015 0.0694048 -0.730343 -0.624231
13.02 -16.3744 -2.88017 0.00635551 -0.41548 -0.90485
38.2366 -4.1436 -8.35599 0.0238519 -0.269175 -0.956446
36.9698 -10.216 -5.57993 0.0699205 -0.372429 -0.918511
50.5131 -5.13739 -7.83797 0.0921366 -0.320038 -0.936571
87.0617 -3.3621 9.08953 0.821543 -0.229887 -0.479115
86.1193 10.3593 13.5895 0.742684 0.518689 -0.414411
86.6918 -12.5815 19.2593 0.762718 -0.636167 -0.10233
52.5088 -28.2897 14.2186 0.155606 -0.971013 0.147326
16.6346 32.1428 10.7979 -0.0108069 0.999469 -0.0188065
-57.2203 11.2721 0.978617 -0.404667 0.44168 -0.763185
-48.47 3.97451 -3.47368 -0.275446 0.257899 -0.898144
-55.1068 2.83809 -1.8096 -0.370622 0.196267 -0.891402
-40.0313 -26.8262 12.321 -0.276195 -0.941067 -0.193796
-26.4174 20.9987 1.64878 -0.133949 0.574027 -0.803451
-39.1891 17.081 1.0385 -0.224449 0.516874 -0.806707
-51.7676 15.0463 1.84914 -0.360214 0.510566 -0.753802
-34.808 12.1427 -1.99902 -0.162869 0.418564 -0.879225
-37.4498 3.93823 -5.37184 -0.170149 0.273021 -0.930973
-41.6779 9.12822 -2.36621 -0.231603 0.378595 -0.863027
-73.7447 3.88986 15.3651 -0.789917 0.119628 -0.591525
-70.5912 8.12154 11.8407 -0.749026 0.150674 -0.630822
-78.0655 1.98177 21.3436 -0.842561 0.186668 -0.493846
19.573 3.96984 -8.45666 -0.00352195 0.254164 -0.961612
31.8118 4.24762 -8.33622 -0.000782846 0.260833 -0.95963
13.4185 24.9854 1.64512 0.0252477 0.634333 -0.724068
7.78659 21.4126 -0.381646 0.00735398 0.522365 -0.828299
28.5209 32.0074 5.64775 -0.00834775 0.850451 -0.524473
-72.6031 -2.27251 13.3575 -0.796529 -0.0226424 -0.59696
-51.7672 -22.9368 14.2482 -0.370241 -0.891767 -0.228555
-47.1578 -19.7531 4.27573 -0.245465 -0.73272 -0.612021
-30.5621 -23.8956 4.7779 -0.157797 -0.676113 -0.705152
-25.165 -27.4098 6.79059 -0.131966 -0.696233 -0.701463
-41.4933 -23.5167 6.50099 -0.218368 -0.753755 -0.608602
-65.7219 -4.61309 5.05523 -0.678729 -0.0286425 -0.729071
-22.9652 19.8853 45.6373 -0.064477 0.937348 0.340403
-21.5579 16.1987 55.8036 -0.059077 0.930638 0.360264
-14.2133 22.7822 39.4131 -0.0461447 0.940106 0.335617
-20.6139 22.2027 39.8273 -0.0596526 0.941113 0.330563
-12.4612 18.9968 49.9058 -0.0407357 0.932751 0.35729
-16.0425 29.0467 22.2404 -0.0527948 0.951935 0.301095
-63.4169 15.3384 5.18542 -0.563856 0.769551 -0.25259
-67.9024 15.1226 25.4913 -0.532044 0.826818 0.132921
-65.2065 15.2153 12.9412 -0.540324 0.819513 -0.0677751
-65.3439 16.1266 19.8344 -0.522569 0.83163 0.0518263
-82.8944 -1.3787 31.1779 -0.917833 -0.216438 -0.115786
-26.7704 -29.89 13.7005 -0.140824 -0.977178 -0.156229
0.0309787 -31.9442 13.3325 -0.031553 -0.984849 -0.118857
5.88861 -31.4712 8.71162 -0.046017 -0.929552 -0.317491
-6.50366 -25.3217 2.69968 -0.0578714 -0.630597 -0.764916
0.559614 -26.6055 3.2401 -0.0479159 -0.673565 -0.71766
19.4612 -30.8251 5.32714 -0.0235019 -0.805947 -0.575848
13.3875 -26.5835 2.60281 -0.0158126 -0.670028 -0.7013
7.11295 -23.7167 0.964995 -0.0171377 -0.583281 -0.781532
23.4176 -9.4462 -5.99997 0.000397673 -0.327678 -0.935859
31.4295 -5.5274 -7.7563 0.00317761 -0.275983 -0.954494
22.1803 -1.58824 -9.52218 -0.00164145 -0.221849 -0.973227
17.6033 -6.48405 -7.33205 -0.00532255 -0.28846 -0.949311
1.21981 24.2563 1.43191 -0.0314921 0.588619 -0.793786
13.2974 30.0983 5.17698 -0.0333064 0.777186 -0.609373
7.63136 27.2555 3.26216 -0.0361444 0.702498 -0.682781
21.4111 31.7461 5.98338 -0.0207319 0.867739 -0.4911
4.30629 31.1003 7.21677 -0.0510974 0.928876 -0.334374
-1.28615 31.5188 10.9041 -0.0572854 0.957568 -0.235331
28.2918 1.20701 72.2749 0.578952 0.398805 0.64857
49.1558 3.00259 57.4979 0.665797 0.374121 0.576733
61.8257 4.02147 48.5433 0.71929 0.356128 0.533441
45.5665 28.9508 17.0756 0.124881 0.935804 0.32859
-54.5084 21.6612 13.9695 -0.376016 0.871842 -0.270255
-50.8967 21.9576 8.59591 -0.32147 0.857722 -0.383879
-44.197 24.5908 9.48656 -0.287502 0.882777 -0.362868
-35.8117 25.7115 7.41405 -0.189187 0.745883 -0.630952
-46.2664 19.1818 3.6252 -0.239775 0.715565 -0.629471
-57.6255 17.7638 4.49113 -0.301533 0.779512 -0.543504
-67.1772 4.83158 6.57384 -0.719309 0.029999 -0.687778
-19.3883 23.4021 2.48851 -0.102944 0.611135 -0.781845
-27.794 -5.17674 -6.0912 -0.109476 -0.289067 -0.944358
-32.0905 -0.0784392 -7.64779 -0.127683 -0.0277806 -0.969444
13.8997 7.43325 -6.90563 -0.00672962 0.300772 -0.944804
-3.41454 -11.2275 -5.08022 -0.0255481 -0.351534 -0.926133
-5.43557 -0.612825 -9.71299 -0.0314177 -0.206773 -0.977812
-2.48418 -19.0545 -1.63614 -0.0238693 -0.45975 -0.887234
2.55655 13.733 -4.07412 -0.0131883 0.385604 -0.914214
1.69816 7.42933 -6.84812 -0.0140538 0.299471 -0.945028
-9.34678 -29.8264 6.72468 -0.0805475 -0.732454 -0.674683
-15.8672 -25.9909 4.25443 -0.095304 -0.659483 -0.739194
89.2935 8.64037 20.1755 0.883111 0.436264 -0.128109
-22.3142 30.6052 14.6774 -0.0963996 0.987557 -0.121114
-31.3522 27.0243 23.9741 -0.130823 0.939928 0.314518
-27.5853 15.6571 56.0246 -0.0920183 0.927342 0.359991
-28.0737 21.2983 40.5336 -0.0954034 0.935592 0.33733
-25.3484 25.2957 30.5547 -0.0862067 0.941964 0.322959
-29.9825 29.3599 13.5613 -0.169445 0.970243 -0.171536
5.2446 32.1126 14.1182 -0.00906789 0.997467 0.0420934
24.5486 32.1792 11.701 0.0636951 0.995063 0.0550992
-10.4245 30.8267 9.86905 -0.0717517 0.978276 -0.194346
-18.855 -29.6683 8.28045 -0.0918287 -0.944943 -0.310269
55.3619 -4.86478 53.1101 0.69551 -0.367924 0.55056
67.1189 -4.65278 44.9885 0.751921 -0.320372 0.514569
90.4227 -5.09043 28.6619 0.854782 -0.26255 0.438824
37.1515 -3.85623 66.046 0.622086 -0.3848 0.613175
47.8468 -3.01934 58.8295 0.680123 -0.31419 0.583745
1.43639 -5.20015 -7.82895 -0.0144245 -0.269024 -0.955921
11.0711 -3.46446 -8.65963 -0.00596969 -0.246044 -0.964338
3.01168 -15.7122 -3.19977 -0.0137379 -0.412754 -0.904504
-10.1861 26.4531 3.94221 -0.0751125 0.662192 -0.738203
-20.7596 28.1773 6.83159 -0.116919 0.705814 -0.695115
70.2699 -4.84984 -6.34913 0.213221 -0.379915 -0.846412
76.3572 -4.42472 -5.0901 0.475962 -0.354803 -0.744423
72.6689 -12.3801 0.185623 0.396855 -0.530398 -0.644848
71.1481 -19.386 5.28363 0.402999 -0.680425 -0.525688
-18.66 -17.4714 -1.4376 -0.0831435 -0.456111 -0.883578
-17.7916 -2.72063 -8.13443 -0.0748067 -0.2402 -0.963419
-22.55 -10.6129 -4.16945 -0.0949608 -0.358866 -0.918132
-13.2594 -6.72016 -6.67037 -0.058819 -0.293028 -0.945603
-12.2606 -15.4199 -2.83732 -0.0576683 -0.417498 -0.900249
3.42439 25.1799 34.1247 -0.00173111 0.942202 0.33493
4.99199 22.8355 40.671 3.97029e-05 0.940761 0.33904
5.50738 29.9373 20.7739 0.00922843 0.94344 0.330712
7.02477 27.7501 26.9024 0.0235081 0.937703 0.344744
