ply
format ascii 1.0
comment Created by Open3D
element vertex 1073
property double x
property double y
property double z
property double nx
property double ny
property double nz
end_header
1.4863 -6.43037 1.43941 -0.69437 -0.348962 0.608794
1.49369 -6.30739 1.47648 -0.579344 0.186776 0.780786
1.46941 -6.26544 1.40085 -0.749488 0.319374 0.562552
1.4689 -6.22388 1.36984 -0.737708 0.374451 0.558189
1.4827 -6.14772 1.33236 -0.681112 0.375897 0.622073
1.47398 -6.06043 1.28554 -0.569718 0.327163 0.751267
1.47259 -5.98674 1.25068 -0.386368 0.34892 0.845144
1.49113 -5.94711 1.23842 -0.266117 0.339478 0.899039
1.47048 -5.73924 1.21474 -0.0351595 0.0163328 0.999202
1.47197 -5.63038 1.21513 -0.0349785 -0.00973794 0.999326
1.49241 -5.5538 1.21603 -0.0216347 -0.00604717 0.999746
1.48969 -5.49171 1.21648 -0.0220217 -0.00506644 0.999741
1.49476 -5.36949 1.21771 -0.0491788 -0.0260065 0.998428
1.47877 -5.41252 1.21649 -0.0286621 -0.0116073 0.999501
1.48326 -5.18845 1.21915 -0.0594942 0.0291916 0.997727
1.46632 -4.99799 1.21648 -0.0249707 -0.00283553 0.999651
1.48814 -4.9458 1.21756 -0.04564 0.0052295 0.998886
1.48129 -4.74448 1.21306 -0.0995268 0.0398797 0.992797
1.4777 -4.69876 1.21102 -0.133079 0.0281961 0.989113
1.47339 -4.65323 1.20968 -0.157486 0.0109352 0.986536
1.46896 -4.60266 1.20883 -0.156477 -0.0180641 0.987186
1.49297 -4.54103 1.21369 -0.0882896 -0.0307277 0.995585
1.48462 -4.4574 1.21539 -0.0480737 -0.0246706 0.998474
1.49105 -4.41178 1.21604 -0.0425181 -0.0235286 0.998764
1.46962 -4.10277 1.2741 -0.526707 -0.452835 0.712607
1.48327 -4.07156 1.30714 -0.621335 -0.52039 0.581005
1.48986 -3.99802 1.41388 -0.650422 -0.52798 0.511679
1.48064 -4.01499 1.37196 -0.665489 -0.586381 0.457888
1.49328 -3.88827 1.48 -0.127478 -0.0683279 0.98664
1.4736 -3.45492 1.48 -0.25093 0.108593 0.945525
1.48034 -3.38618 1.46986 -0.421735 0.324017 0.818972
1.47967 -3.31339 1.40516 -0.575823 0.548011 0.605067
1.46887 -3.23293 1.32499 -0.42914 0.579984 0.685573
1.4744 -3.09703 1.25784 -0.302604 0.0744513 0.945627
1.49192 -3.14026 1.26039 -0.33599 0.253156 0.904039
1.48623 -3.04358 1.25943 -0.297563 0.129152 0.944124
1.47779 -2.90589 1.24939 -0.307233 -0.113369 0.942153
1.46796 -2.69577 1.24982 -0.373471 -0.0900082 0.921219
1.4748 -2.6116 1.27035 -0.535095 -0.214559 0.814968
1.48838 -2.51674 1.29571 -0.611308 0.000237577 0.787164
1.49115 -2.42439 1.29474 -0.612696 0.0460432 0.787529
1.49103 -2.37708 1.28907 -0.636786 -0.0386505 0.769478
1.47306 -2.28364 1.28737 -0.649689 -0.0233405 0.757816
1.48335 -2.32755 1.29191 -0.663031 -0.108762 0.740278
1.4946 -2.09938 1.27386 -0.264119 0.270124 0.924773
1.47438 -1.86116 1.29999 -0.603072 -0.382948 0.694681
1.47985 -1.90849 1.2734 -0.457135 -0.365215 0.803315
1.49447 -1.71991 1.39595 -0.814524 -0.279009 0.504461
1.46776 -1.71154 1.34993 -0.816414 -0.276391 0.503765
1.47612 -1.67837 1.38697 -0.805229 -0.328186 0.492106
1.47658 -1.61923 1.44254 -0.709463 -0.308012 0.595128
1.47309 -1.53783 1.47455 -0.426182 -0.203078 0.855368
1.47502 -1.38573 1.48 0 0 1
1.47171 -1.30025 1.48 0 0 1
1.48486 -1.04741 1.4613 -0.539867 0.375966 0.705618
1.47834 -1.09614 1.47546 -0.431833 0.164215 0.833747
1.47367 -0.991287 1.37854 -0.643332 0.529243 0.536691
1.49381 -1.00975 1.43262 -0.577392 0.483173 0.621684
1.4832 -0.932564 1.32259 -0.655199 0.423377 0.619302
1.48374 -0.894987 1.30345 -0.643374 0.253088 0.698268
1.49558 -0.730454 1.31694 -0.61568 -0.295207 0.723004
1.47561 -0.550486 1.38116 -0.514423 -0.164302 0.828049
1.47386 -0.4275 1.40352 -0.606797 0.0332691 0.789645
1.46598 -0.324724 1.38188 -0.676704 -0.00246612 0.734358
1.49394 -0.198745 1.39868 -0.650999 0.273247 0.700297
1.4668 -0.168142 1.34858 -0.68626 0.362773 0.629292
1.48287 -0.109194 1.32945 -0.62047 0.36393 0.691411
1.4654 -0.0595485 1.29711 -0.506402 0.267716 0.817027
1.48295 0.0946248 1.32434 -0.243894 -0.501604 0.816153
1.47923 0.132235 1.35417 -0.228916 -0.642539 0.728694
1.48652 0.186114 1.41178 -0.299545 -0.652874 0.694729
1.49577 0.320524 1.48 -0.00643038 -0.0774405 0.995463
1.47557 0.469432 1.48 0 0 1
1.48786 0.548938 1.48 0 0 1
1.49047 0.628333 1.48 0 0 1
1.47535 0.699929 1.48 0 0 1
1.50974 -6.70788 1.35265 -0.459966 -0.339422 0.768315
1.52594 -6.61393 1.40248 -0.539482 -0.223262 0.791017
1.4977 -6.61386 1.36253 -0.759855 -0.100864 0.627099
1.50968 -6.57558 1.38664 -0.719133 -0.137075 0.667161
1.51472 -6.49529 1.41484 -0.69386 -0.356123 0.610554
1.52289 -6.46924 1.45617 -0.5869 -0.421328 0.689105
1.51813 -6.41645 1.47846 -0.368473 -0.22782 0.882883
1.50591 -6.35909 1.48 -0.33043 -0.0312485 0.918093
1.50474 -6.21363 1.41269 -0.681593 0.36063 0.610244
1.51585 -6.1607 1.39508 -0.703142 0.418828 0.571974
1.5174 -6.12594 1.36471 -0.662689 0.460701 0.587474
1.49925 -6.09993 1.32642 -0.636552 0.393496 0.659078
1.50315 -6.01358 1.28366 -0.389806 0.481878 0.780153
1.52687 -6.06663 1.33183 -0.444093 0.545214 0.710536
1.50384 -5.83649 1.21884 -0.0608386 0.0869404 0.993683
1.516 -5.78537 1.2169 -0.030266 0.0399871 0.998247
1.50219 -5.69596 1.2156 -0.0268583 0.000309181 0.999618
1.51602 -5.62594 1.21635 -0.0263763 -0.00632929 0.999628
1.50671 -5.30981 1.22073 -0.0823086 -0.0308134 0.996001
1.49707 -5.26075 1.22153 -0.0769372 -0.00711525 0.99693
1.50118 -5.14397 1.21818 -0.0622765 0.0257002 0.997657
1.51592 -5.10244 1.21875 -0.0767386 0.0116783 0.996735
1.5151 -4.99786 1.21884 -0.0952542 -0.0059715 0.994805
1.49803 -4.90044 1.21707 -0.0434598 0.0159923 0.998755
1.51259 -4.8573 1.21717 -0.0674798 0.0178301 0.996972
1.51461 -4.67363 1.21422 -0.0778387 0.0152233 0.996744
1.50937 -4.58267 1.21379 -0.0804074 -0.0155273 0.99646
1.52632 -4.48427 1.21639 -0.0505608 -0.0137973 0.998614
1.50982 -4.3618 1.21858 -0.0836423 -0.0505673 0.994963
1.522 -4.27809 1.22693 -0.212245 -0.161157 0.960468
1.52154 -4.23418 1.23526 -0.312961 -0.279081 0.900622
1.49913 -4.18219 1.24816 -0.398517 -0.377718 0.826757
1.50539 -4.1388 1.28115 -0.541102 -0.483431 0.685682
1.51418 -4.03819 1.40135 -0.633776 -0.574197 0.503038
1.51125 -4.05654 1.36223 -0.670376 -0.584333 0.454619
1.51309 -3.81111 1.48 0 0 1
1.51066 -3.73804 1.48 0 0 1
1.50767 -3.67418 1.48 0 0 1
1.50791 -3.58924 1.48 0 0 1
1.51774 -3.44069 1.48 -0.0238626 0.0128639 0.998819
1.52437 -3.48851 1.48 -0.00776096 0.0041838 0.999616
1.49644 -3.35001 1.45369 -0.486951 0.400129 0.73962
1.51135 -3.30663 1.43845 -0.515414 0.460598 0.701946
1.51086 -3.2072 1.32549 -0.428076 0.649047 0.625174
1.51537 -3.25066 1.38282 -0.529207 0.625586 0.565541
1.5026 -3.17762 1.2928 -0.382536 0.477642 0.755841
1.52299 -3.06275 1.27008 -0.279284 0.101458 0.954429
1.51699 -3.00019 1.25715 -0.325968 0.0524328 0.939247
1.50564 -2.94335 1.25539 -0.388991 -0.066653 0.917138
1.51739 -2.84188 1.2682 -0.462241 -0.00897477 0.883811
1.50056 -2.78342 1.2599 -0.428885 0.000844528 0.899918
1.51082 -2.68751 1.27554 -0.601185 -0.155512 0.777197
1.50118 -2.73503 1.25805 -0.492902 -0.0716304 0.861585
1.51698 -2.64392 1.29211 -0.6291 -0.199926 0.745957
1.51034 -2.59835 1.29984 -0.599268 -0.187632 0.776082
1.52243 -2.51927 1.32697 -0.604321 -0.0222019 0.79147
1.52321 -2.35606 1.32378 -0.588073 -0.0940173 0.801789
1.51113 -2.27053 1.32224 -0.547737 0.106183 0.820549
1.50477 -2.149 1.29465 -0.333391 0.228874 0.912414
1.49878 -2.05027 1.25887 -0.307032 0.165306 0.934849
1.50214 -2.00252 1.25693 -0.367395 -0.0474236 0.920347
1.52426 -1.93854 1.27988 -0.494222 -0.326091 0.795114
1.51011 -1.85668 1.33015 -0.55522 -0.514235 0.646937
1.52214 -1.76212 1.42309 -0.739647 -0.320655 0.575303
1.50148 -1.7891 1.36934 -0.757565 -0.336813 0.54948
1.50831 -1.67821 1.43947 -0.67618 -0.319427 0.645649
1.4962 -1.61233 1.47969 -0.477596 -0.257968 0.828333
1.51366 -1.4647 1.48 0 0 1
1.52422 -1.40567 1.48 0 0 1
1.51718 -1.31793 1.48 0 0 1
1.51425 -1.26279 1.48 0 0 1
1.50646 -1.17243 1.48 0 0 1
1.52666 -1.03752 1.47609 -0.277066 0.236946 0.914469
1.52618 -0.947706 1.4047 -0.71764 0.432098 0.533252
1.50528 -0.948505 1.36708 -0.662709 0.443912 0.599022
1.51151 -0.899016 1.34334 -0.72884 0.288842 0.590358
1.50254 -0.826989 1.31027 -0.679464 0.0515951 0.718274
1.50027 -0.778139 1.30798 -0.65696 -0.115882 0.731716
1.52287 -0.70354 1.36337 -0.690395 -0.291793 0.654564
1.49679 -0.628033 1.38909 -0.407774 -0.19327 0.89144
1.50457 -0.521811 1.40247 -0.45358 -0.323644 0.824511
1.51181 -0.483894 1.4255 -0.560866 -0.222936 0.769806
1.51777 -0.43539 1.43611 -0.653729 -0.00892378 0.74636
1.50624 -0.388202 1.41354 -0.634436 0.0766959 0.760183
1.50786 -0.30926 1.42447 -0.656946 -0.0537336 0.747815
1.50189 -0.26529 1.42209 -0.634043 0.0284787 0.762928
1.52428 -0.132283 1.39611 -0.649026 0.405616 0.639308
1.51097 -0.0894173 1.35494 -0.604664 0.402464 0.678737
1.51225 -0.0357325 1.31877 -0.531089 0.287765 0.781789
1.51982 0.060252 1.31144 -0.43971 -0.291506 0.831144
1.52191 0.0123287 1.31359 -0.490953 0.083546 0.85718
1.49765 0.37427 1.48 0 0 1
1.50408 0.422972 1.48 0 0 1
1.55601 -6.68431 1.36889 -0.00169295 -0.528366 0.836352
1.54354 -6.57482 1.41808 -0.557378 -0.268774 0.76584
1.55358 -6.52625 1.43863 -0.599231 -0.308495 0.735976
1.5477 -6.37917 1.48 -0.0385779 -0.0207968 0.998092
1.53707 -6.24841 1.48 -0.382741 0.195753 0.873478
1.55044 -6.18275 1.46651 -0.518837 0.36579 0.75071
1.55001 -6.12047 1.39651 -0.58592 0.571072 0.569414
1.54888 -6.01393 1.29242 -0.257227 0.584429 0.766537
1.54785 -5.90047 1.23408 -0.141252 0.278413 0.946705
1.54972 -5.8293 1.22016 -0.0704717 0.110961 0.990883
1.54055 -5.74848 1.21671 -0.0358635 0.0206109 0.99886
1.54653 -5.55248 1.21786 -0.0521386 -0.00665097 0.998528
1.53445 -5.42796 1.21818 -0.0516386 -0.0268121 0.998236
1.53942 -5.47411 1.2179 -0.0447588 -0.00665896 0.998874
1.54248 -5.37586 1.22101 -0.0932412 -0.0549028 0.993897
1.55785 -5.32617 1.22638 -0.129937 -0.0399586 0.990342
1.5436 -5.24227 1.22512 -0.105295 0.0130525 0.994193
1.54858 -5.14403 1.22206 -0.100837 0.0290668 0.994417
1.52982 -5.05725 1.21996 -0.108385 -0.0087979 0.994016
1.55886 -5.01425 1.22572 -0.134788 -0.0224383 0.9906
1.54501 -4.91539 1.22188 -0.151235 0.0164141 0.987385
1.55679 -4.84736 1.22172 -0.21437 0.0238079 0.9758
1.55738 -4.73458 1.21818 -0.132161 0.0388712 0.990031
1.53116 -4.77794 1.21702 -0.089233 0.024124 0.995075
1.55372 -4.65388 1.21629 -0.0763184 0.0142076 0.996915
1.5548 -4.58827 1.21616 -0.0626676 -0.00841659 0.997948
1.55273 -4.54485 1.21658 -0.0656063 -0.0223792 0.997573
1.55191 -4.4127 1.21926 -0.0965716 -0.0466912 0.994089
1.54649 -4.20371 1.25969 -0.476215 -0.446336 0.750211
1.5444 -4.08492 1.37605 -0.635361 -0.609842 0.471842
1.54844 -4.12514 1.33173 -0.634719 -0.574079 0.514714
1.55065 -4.04366 1.44907 -0.493582 -0.501417 0.669052
1.53292 -4.00396 1.47326 -0.413575 -0.382681 0.787087
1.52969 -3.95344 1.48 -0.187407 -0.125269 0.96649
1.55656 -3.87727 1.48 0 0 1
1.54298 -3.76826 1.48 0 0 1
1.554 -3.66145 1.48 0 0 1
1.52981 -3.54166 1.48 0 0 1
1.5331 -3.32189 1.48 -0.405422 0.323043 0.844806
1.55517 -3.2847 1.45984 -0.349678 0.461709 0.763982
1.54356 -3.14668 1.28328 -0.411234 0.369788 0.830087
1.54274 -2.95849 1.27241 -0.450105 -0.124853 0.881674
1.53642 -2.9053 1.27941 -0.530993 -0.0839809 0.841929
1.5321 -2.72572 1.28688 -0.681026 -0.127576 0.719613
1.55239 -2.39246 1.33416 -0.450073 -0.0761974 0.882019
1.54926 -2.43965 1.33441 -0.50279 0.12679 0.849568
1.55544 -2.3299 1.35283 -0.331523 -0.0486338 0.937473
1.55286 -2.28517 1.34366 -0.297182 0.145919 0.932964
1.5308 -2.208 1.31708 -0.316859 0.236222 0.91735
1.54138 -2.07106 1.27815 -0.379876 0.128831 0.911378
1.53917 -1.98461 1.27814 -0.549412 -0.153641 0.816273
1.54567 -1.90631 1.31635 -0.586219 -0.42498 0.681495
1.54157 -1.82568 1.3923 -0.587773 -0.540232 0.593657
1.55418 -1.76256 1.4603 -0.465862 -0.361132 0.773746
1.52884 -1.72103 1.44739 -0.679837 -0.262057 0.673288
1.54273 -1.64036 1.48 -0.201447 -0.135769 0.964928
1.53619 -1.55465 1.48 -0.000805893 -0.000434443 0.999999
1.54799 -1.36057 1.48 0 0 1
1.54448 -1.19962 1.48 0 0 1
1.55159 -1.13289 1.48 0 0 1
1.55792 -1.0722 1.48 -0.0546954 0.032402 0.995112
1.55896 -0.985594 1.47992 -0.395811 0.222461 0.889134
1.53663 -0.859275 1.359 -0.826493 0.157728 0.536217
1.54991 -0.781636 1.37766 -0.824614 -0.0601305 0.551995
1.52972 -0.807904 1.33891 -0.808688 0.00849067 0.587171
1.52839 -0.762035 1.34406 -0.791875 -0.146279 0.58742
1.5277 -0.662539 1.38389 -0.553614 -0.150754 0.787756
1.54345 -0.618653 1.39741 -0.518378 0.0106005 0.822526
1.54448 -0.573871 1.38635 -0.441789 -0.190933 0.861817
1.54848 -0.504043 1.44659 -0.572408 -0.360906 0.719466
1.55135 -0.433286 1.46755 -0.533268 -0.0416516 0.82702
1.54877 -0.343291 1.46438 -0.55187 -0.0227948 0.818029
1.54334 -0.295913 1.45995 -0.581694 -0.0168556 0.798365
1.54611 -0.229711 1.46222 -0.581289 0.112546 0.793726
1.52826 -0.173909 1.4216 -0.679221 0.305761 0.662749
1.55685 -0.0181967 1.34215 -0.565302 0.276432 0.756166
1.55744 0.0756472 1.34631 -0.553073 -0.387614 0.729575
1.5372 0.163171 1.41779 -0.333028 -0.601842 0.722082
1.55447 0.205452 1.45217 -0.252188 -0.465845 0.835067
1.54369 0.400583 1.48 0 0 1
1.54908 0.497481 1.48 0 0 1
1.55095 0.596152 1.48 0 0 1
1.53618 0.700346 1.48 0 0 1
1.56622 -6.64558 1.39374 -0.0569811 -0.54293 0.822873
1.57999 -6.56172 1.44769 -0.304417 -0.402353 0.827625
1.57449 -6.4939 1.47763 -0.269554 -0.256172 0.920538
1.57688 -6.4176 1.48 -0.0389191 -0.0209807 0.997718
1.57439 -6.33265 1.48 0 0 1
1.58889 -6.19536 1.48 -0.188255 0.143979 0.961962
1.56468 -6.08548 1.37427 -0.438429 0.626966 0.637726
1.57638 -6.02974 1.32123 -0.374421 0.623194 0.667149
1.57607 -5.93993 1.25692 -0.227582 0.430232 0.867722
1.58096 -5.70196 1.21805 -0.0967454 0.000448575 0.994736
1.57941 -5.50839 1.2202 -0.0823326 -0.00134515 0.996435
1.58522 -5.41579 1.22107 -0.0946797 -0.0554267 0.993885
1.5686 -5.19062 1.22721 -0.147861 0.0354791 0.986805
1.58285 -5.10944 1.22576 -0.157014 0.0260921 0.985957
1.58136 -5.05107 1.22549 -0.121304 -0.0156201 0.992378
1.58662 -4.31231 1.23364 -0.357818 -0.222124 0.905376
1.58295 -4.23513 1.26775 -0.522838 -0.442742 0.723746
1.56454 -4.17406 1.29974 -0.586472 -0.533485 0.601773
1.57991 -4.11207 1.39641 -0.593824 -0.617312 0.507198
1.5647 -3.80988 1.48 0 0 1
1.58109 -3.698 1.48 0 0 1
1.58982 -3.60751 1.48 0 0 1
1.56536 -3.44619 1.48 0 0 1
1.56045 -3.35587 1.48 -0.0797518 0.0841414 0.983225
1.55985 -3.17984 1.32609 -0.434506 0.581755 0.660194
1.57261 -3.20156 1.36094 -0.463613 0.684414 0.554912
1.57825 -3.0443 1.28155 -0.37123 0.088578 0.917449
1.56548 -2.80167 1.30338 -0.69568 -0.133499 0.703112
1.56941 -2.75052 1.32606 -0.757224 -0.167402 0.629204
1.57496 -2.68406 1.34595 -0.742027 -0.0465299 0.66331
1.57823 -2.63402 1.35075 -0.624992 0.004668 0.772555
1.57038 -2.57597 1.34424 -0.492674 -0.0961871 0.857588
1.58034 -2.5016 1.36638 -0.322598 0.00147426 0.941126
1.56072 -2.24063 1.33118 -0.224894 0.251441 0.940384
1.57282 -2.18991 1.32307 -0.283805 0.279524 0.912804
1.56641 -2.13731 1.30382 -0.296648 0.234234 0.920804
1.58025 -2.05916 1.29963 -0.59089 -0.0630785 0.796152
1.57248 -2.0142 1.3014 -0.66112 -0.143383 0.731174
1.57994 -1.91995 1.33926 -0.665585 -0.343132 0.661585
1.57407 -1.8214 1.42347 -0.478962 -0.569318 0.66359
1.58716 -1.85517 1.39399 -0.554271 -0.557514 0.61643
1.57722 -1.72178 1.48 -0.219338 -0.151964 0.9583
1.58649 -1.64351 1.48 -0.0130329 -0.0070258 0.999148
1.56352 -1.588 1.48 -0.0192572 -0.0103812 0.99874
1.57226 -1.48523 1.48 0 0 1
1.56033 -1.44003 1.48 0 0 1
1.58483 -1.26416 1.48 0 0 1
1.58502 -1.16037 1.48 0 0 1
1.58981 -1.10187 1.48 0 0 1
1.5809 -0.929572 1.47011 -0.484779 0.260486 0.800352
1.57692 -0.893233 1.43791 -0.637652 0.207179 0.690759
1.56097 -0.872875 1.39919 -0.809378 0.207682 0.530778
1.56429 -0.824013 1.40111 -0.829689 0.0730468 0.545632
1.56922 -0.701538 1.42755 -0.755072 -0.111559 0.645118
1.58412 -0.747194 1.42225 -0.789946 -0.0860159 0.606227
1.56552 -0.656838 1.42009 -0.706219 0.0322438 0.697513
1.57663 -0.60424 1.42157 -0.668852 -0.0501821 0.718965
1.5774 -0.537707 1.45086 -0.592885 -0.293944 0.723998
1.56154 -0.387377 1.48 -0.41678 0.0151979 0.90026
1.58504 -0.27391 1.48 -0.0871458 0.016643 0.975706
1.58755 -0.183786 1.47782 -0.297758 0.210285 0.909097
1.5716 -0.111858 1.4202 -0.539985 0.490054 0.676904
1.58686 -0.142122 1.45635 -0.446457 0.361184 0.7952
1.57491 -0.0703885 1.3886 -0.571097 0.465492 0.674935
1.57477 0.137558 1.41181 -0.4399 -0.529474 0.718946
1.59 0.291004 1.48 -0.0152731 -0.0377871 0.995262
1.57041 0.446119 1.48 0 0 1
1.56575 0.554132 1.48 0 0 1
1.58291 0.707455 1.48 0 0 1
1.60499 -6.68365 1.36179 0.196701 -0.549996 0.801083
1.61424 -6.62094 1.41157 0.162536 -0.590133 0.768861
1.62079 -6.47806 1.47976 -0.0305124 -0.0642012 0.995898
1.60936 -6.28276 1.48 0 0 1
1.62194 -6.23157 1.48 -0.0124662 0.00688936 0.99939
1.60306 -6.13917 1.47006 -0.331167 0.401614 0.799906
1.59263 -6.10731 1.43625 -0.466196 0.572361 0.658612
1.61119 -6.03483 1.35285 -0.339812 0.693429 0.628712
1.61164 -5.97109 1.28916 -0.284665 0.574382 0.755649
1.62064 -5.93431 1.26217 -0.232298 0.476508 0.840286
1.60487 -5.78674 1.22304 -0.172574 0.0610085 0.981066
1.61971 -5.73419 1.22428 -0.224265 0.0209337 0.973744
1.59065 -5.62593 1.22009 -0.106009 -0.0121353 0.994272
1.60924 -5.54113 1.22293 -0.116329 -0.00186253 0.993072
1.61461 -5.45722 1.22371 -0.116771 -0.0206826 0.992452
1.59537 -5.37414 1.22737 -0.126997 -0.104047 0.986185
1.6083 -5.29713 1.23747 -0.249142 -0.0613824 0.964851
1.61726 -5.19478 1.24002 -0.317816 0.0552257 0.945616
1.61554 -5.08143 1.22947 -0.184491 0.0309006 0.981051
1.60561 -4.99176 1.2295 -0.174248 -0.0528055 0.982794
1.61055 -4.93851 1.23575 -0.268074 -0.068429 0.960154
1.59689 -4.79447 1.23203 -0.288978 0.0658328 0.954828
1.61948 -4.7329 1.23237 -0.304773 0.113861 0.944901
1.59675 -4.68381 1.22223 -0.17441 0.0642472 0.97912
1.59844 -4.52801 1.22171 -0.139268 -0.0312366 0.989264
1.61123 -4.373 1.23479 -0.354789 -0.193389 0.908669
1.5953 -4.41976 1.22296 -0.177285 -0.0752303 0.979291
1.61427 -4.20826 1.31841 -0.571529 -0.566643 0.587606
1.59687 -4.14943 1.36881 -0.601542 -0.626714 0.494053
1.6031 -4.09836 1.4515 -0.484298 -0.543031 0.667971
1.62081 -3.99468 1.48 -0.0256451 -0.0138249 0.999191
1.59548 -3.90875 1.48 0 0 1
1.5939 -3.84387 1.48 0 0 1
1.60177 -3.77197 1.48 0 0 1
1.62007 -3.67691 1.48 0 0 1
1.62028 -3.7293 1.48 0 0 1
1.60392 -3.53063 1.48 0 0 1
1.60504 -3.46852 1.48 0 0 1
1.60827 -3.34778 1.48 -0.041945 0.0341867 0.996975
1.60814 -3.2361 1.43619 -0.336889 0.521031 0.730663
1.59076 -3.2159 1.40094 -0.460329 0.647555 0.583398
1.62089 -3.26092 1.47669 -0.207691 0.392498 0.889885
1.60625 -3.15418 1.34499 -0.584145 0.507439 0.627052
1.5948 -3.11254 1.30841 -0.49464 0.351529 0.772709
1.61379 -3.01865 1.29177 -0.493104 -0.091713 0.858859
1.60238 -2.92365 1.33185 -0.660373 -0.213438 0.711363
1.59649 -2.96916 1.29952 -0.534145 -0.306353 0.785024
1.62012 -2.87516 1.35587 -0.752565 -0.149463 0.635853
1.59519 -2.80074 1.34074 -0.783358 -0.206414 0.584603
1.59068 -2.84521 1.32048 -0.734975 -0.0720876 0.670579
1.59415 -2.45604 1.35638 -0.355317 0.100476 0.927436
1.61647 -2.38655 1.37484 -0.394349 -0.0610576 0.916661
1.59546 -2.30654 1.3574 -0.357398 0.104701 0.924808
1.61244 -2.21238 1.35227 -0.493078 0.210907 0.838511
1.61616 -2.13961 1.31912 -0.625334 0.11859 0.763868
1.61251 -2.07087 1.32844 -0.711516 -0.13978 0.688228
1.6073 -1.99874 1.34578 -0.732359 -0.185866 0.654953
1.61569 -1.95429 1.36621 -0.728391 -0.228747 0.641266
1.61175 -1.90763 1.37804 -0.687816 -0.355136 0.622209
1.61963 -1.84902 1.43471 -0.59882 -0.459972 0.638526
1.59549 -1.76916 1.47166 -0.268273 -0.302252 0.887955
1.61589 -1.68601 1.48 -0.00107083 -0.000577267 0.999925
1.59511 -1.55304 1.48 0 0 1
1.61305 -1.37874 1.48 0 0 1
1.60283 -1.30815 1.48 0 0 1
1.60439 -1.20343 1.48 0 0 1
1.61364 -0.880425 1.47148 -0.379524 0.0952757 0.878949
1.60592 -0.83777 1.46295 -0.563604 0.0585559 0.764494
1.60656 -0.773631 1.45454 -0.603173 -0.026696 0.760313
1.60265 -0.717316 1.46291 -0.625677 -0.0492434 0.755171
1.60646 -0.593926 1.45806 -0.561059 -0.0798096 0.786324
1.60026 -0.431514 1.48 -0.0314762 -0.0155876 0.997776
1.61122 -0.105236 1.46007 -0.470454 0.397156 0.775651
1.5908 0.00290131 1.36063 -0.684801 0.139293 0.70776
1.6135 0.0422794 1.38871 -0.703578 -0.14027 0.667756
1.5934 0.100217 1.39595 -0.570676 -0.417847 0.69779
1.59692 0.206847 1.46539 -0.226208 -0.333029 0.898892
1.60756 0.248619 1.48 -0.0804868 -0.147977 0.983183
1.61092 0.394585 1.48 0 0 1
1.62163 0.448246 1.48 0 0 1
1.61019 0.539754 1.48 0 0 1
1.60211 0.663601 1.48 0 0 1
1.63954 -6.70308 1.34378 0.310907 -0.349949 0.867948
1.62358 -6.55451 1.45862 0.0667179 -0.444139 0.874009
1.63111 -6.36816 1.48 0 0 1
1.63746 -6.41221 1.48 0 0 1
1.64788 -6.32096 1.48 0 0 1
1.63167 -6.1767 1.48 -0.0605058 0.0743706 0.983418
1.6521 -6.05274 1.39573 -0.170473 0.755199 0.631399
1.62419 -6.0022 1.3207 -0.318294 0.679739 0.654927
1.62225 -5.88594 1.23912 -0.209803 0.299761 0.928738
1.62514 -5.68503 1.22514 -0.224135 0.0109535 0.973139
1.6496 -5.55944 1.2289 -0.199198 0.0073114 0.979513
1.62718 -5.59929 1.22568 -0.162145 0.0017109 0.986387
1.6386 -5.40563 1.22907 -0.170526 -0.0794947 0.98064
1.65165 -5.36323 1.2353 -0.179335 -0.172335 0.968144
1.62517 -5.25865 1.24365 -0.336416 -0.0164641 0.939161
1.65186 -5.21627 1.25391 -0.328594 0.0352083 0.942653
1.63215 -5.151 1.24086 -0.288209 0.086718 0.952767
1.6512 -4.93127 1.25161 -0.267123 -0.0882172 0.957987
1.62908 -4.89009 1.24525 -0.301331 -0.0240487 0.952894
1.63152 -4.83389 1.24591 -0.295883 0.0299114 0.954576
1.65053 -4.69772 1.24031 -0.404756 0.122601 0.903779
1.62741 -4.61136 1.22309 -0.209499 0.00681052 0.973918
1.63735 -4.55303 1.22786 -0.240596 -0.0382513 0.967902
1.63488 -4.50655 1.23042 -0.236689 -0.0212748 0.970157
1.63982 -4.44213 1.2307 -0.326598 -0.114084 0.93354
1.625 -4.28682 1.26962 -0.567335 -0.357266 0.735472
1.64672 -4.25323 1.30421 -0.643644 -0.450027 0.6156
1.64303 -4.15162 1.42598 -0.576292 -0.554288 0.583214
1.6395 -3.82328 1.48 0 0 1
1.62815 -3.63193 1.48 0 0 1
1.65291 -3.37751 1.48 -0.000515352 0.000277818 0.999991
1.64567 -3.20842 1.43729 -0.499813 0.499452 0.693167
1.64445 -3.16379 1.40379 -0.588422 0.522135 0.612343
1.6369 -3.0868 1.32057 -0.577639 0.397432 0.707693
1.62977 -2.80528 1.39098 -0.816703 -0.277784 0.50265
1.64335 -2.75424 1.45673 -0.734605 -0.127794 0.633295
1.62586 -2.72101 1.43192 -0.828012 0.00394486 0.538078
1.62782 -2.65488 1.40678 -0.765624 0.184635 0.60911
1.62784 -2.56672 1.37754 -0.56808 0.136761 0.803825
1.63464 -2.60769 1.40005 -0.692475 0.200258 0.680634
1.62627 -2.495 1.36837 -0.291193 0.0693793 0.947981
1.64176 -2.30001 1.3743 -0.410446 0.088622 0.906088
1.65234 -2.25303 1.37314 -0.552297 0.0562739 0.828353
1.6396 -2.10664 1.35251 -0.753074 -0.0816134 0.646961
1.64767 -2.01267 1.38468 -0.744651 -0.18264 0.641692
1.63428 -1.89149 1.41695 -0.70028 -0.384532 0.592114
1.65056 -1.76132 1.48 -0.0616902 -0.0397054 0.99283
1.62745 -1.79884 1.48 -0.34515 -0.243323 0.895656
1.6312 -1.626 1.48 0 0 1
1.64902 -1.4884 1.48 0 0 1
1.63209 -1.42702 1.48 0 0 1
1.64416 -1.29266 1.48 0 0 1
1.62709 -1.24606 1.48 0 0 1
1.64075 -1.18025 1.48 0 0 1
1.6283 -1.07246 1.48 0 0 1
1.64451 -1.01615 1.48 0 0 1
1.63363 -0.972213 1.48 -0.0233619 0.012594 0.998295
1.65344 -0.761219 1.48 -0.0014416 -4.12534e-05 0.999667
1.63265 -0.805977 1.48 -0.27924 0.0165152 0.938085
1.6405 -0.683643 1.48 -0.162174 -0.00353656 0.966724
1.63628 -0.633648 1.48 -0.213723 0.0155834 0.956357
1.63375 -0.481516 1.48 -0.00318171 -0.00171521 0.999703
1.6476 -0.368109 1.48 0 0 1
1.63575 -0.288852 1.48 0 0 1
1.62981 -0.205036 1.48 -0.0537803 0.0298504 0.994362
1.62634 -0.145553 1.47973 -0.226728 0.170982 0.935008
1.6293 -0.00162809 1.40002 -0.709909 0.120286 0.684421
1.6433 -0.0371869 1.43241 -0.62127 0.274796 0.722209
1.63967 0.0367679 1.42324 -0.750243 -0.10812 0.633526
1.62771 0.109998 1.43808 -0.631441 -0.312657 0.704184
1.65194 0.149028 1.47186 -0.418634 -0.175865 0.87942
1.63138 0.326672 1.48 0 0 1
1.63588 0.579962 1.48 0 0 1
1.6238 0.625155 1.48 0 0 1
1.64992 0.709033 1.48 0 0 1
1.65862 -6.59596 1.42191 0.191212 -0.687405 0.695234
1.68357 -6.63743 1.35585 0.0985053 -0.482637 0.850725
1.66431 -6.54317 1.46918 0.0752951 -0.427417 0.884257
1.68157 -6.48361 1.47927 0.0504291 -0.0950234 0.9853
1.68468 -6.43507 1.48 0.0127691 -0.0150662 0.999337
1.66141 -6.27404 1.48 0 0 1
1.68317 -6.22792 1.48 0 0 1
1.66186 -6.10591 1.45794 -0.112758 0.503698 0.82293
1.6723 -5.97519 1.30936 -0.311055 0.620979 0.706381
1.68075 -5.90266 1.26685 -0.336312 0.354804 0.866905
1.66913 -5.84749 1.24736 -0.329948 0.167761 0.924925
1.65657 -5.80474 1.23767 -0.348295 0.0716834 0.933062
1.66731 -5.74056 1.2427 -0.346842 0.0179927 0.937287
1.65855 -5.63004 1.23227 -0.262068 0.0387965 0.962895
1.66849 -5.50927 1.23275 -0.228623 0.00206395 0.973096
1.6816 -5.44719 1.23645 -0.249727 -0.0119226 0.967819
1.68374 -5.40001 1.23767 -0.206982 -0.0718565 0.972093
1.68132 -5.28098 1.25966 -0.154966 -0.132648 0.973556
1.66861 -5.09942 1.24796 -0.259472 0.104769 0.959392
1.66853 -4.87564 1.25651 -0.220219 -0.0223344 0.971526
1.66173 -4.64433 1.23606 -0.41269 0.102853 0.898136
1.68134 -4.5595 1.24338 -0.388806 0.00646087 0.919648
1.67785 -4.47247 1.24156 -0.408956 -0.110885 0.902465
1.65371 -4.32081 1.2813 -0.641749 -0.304259 0.703077
1.67323 -4.36144 1.2809 -0.635442 -0.342128 0.68962
1.67743 -4.25131 1.3467 -0.754882 -0.438775 0.479851
1.66877 -4.15861 1.46083 -0.569458 -0.441562 0.669511
1.65674 -4.19462 1.37982 -0.663624 -0.570475 0.479049
1.66916 -4.18753 1.42277 -0.652005 -0.526376 0.536943
1.67531 -4.11646 1.48 -0.292055 -0.1949 0.928697
1.65931 -4.07452 1.48 -0.162028 -0.118865 0.973882
1.66047 -3.95904 1.48 0 0 1
1.68092 -3.79934 1.48 0 0 1
1.67086 -3.70054 1.48 0 0 1
1.65635 -3.58354 1.48 0 0 1
1.67402 -3.4749 1.48 0 0 1
1.661 -3.42433 1.48 0 0 1
1.66276 -3.32532 1.48 0 0 1
1.66618 -3.26824 1.48 -0.167173 0.167679 0.964615
1.68144 -3.21273 1.47552 -0.391847 0.260777 0.866132
1.65627 -3.11185 1.36645 -0.593394 0.494262 0.63206
1.65482 -3.01095 1.32185 -0.592562 -0.186776 0.761883
1.6607 -2.96704 1.35298 -0.580495 -0.428505 0.690436
1.67889 -2.88587 1.41903 -0.670374 -0.356713 0.644484
1.66944 -2.80115 1.46253 -0.586797 -0.273712 0.726237
1.66216 -2.71874 1.4734 -0.519348 0.0574697 0.810726
1.6582 -2.65065 1.44733 -0.647879 0.241299 0.698775
1.68329 -2.5429 1.42528 -0.592856 0.347866 0.71773
1.65543 -2.5253 1.38863 -0.541961 0.250454 0.790728
1.66701 -2.47973 1.38905 -0.338279 0.222163 0.862783
1.67956 -2.43687 1.36401 -0.210026 0.0324943 0.973128
1.66702 -2.36409 1.38857 -0.260061 -0.124852 0.93808
1.66475 -2.15392 1.38232 -0.79367 0.012903 0.605289
1.65993 -2.20124 1.3816 -0.704664 0.037475 0.700765
1.65471 -2.05632 1.37953 -0.764477 -0.146003 0.625339
1.67664 -2.01149 1.41911 -0.785534 -0.143145 0.597126
1.68323 -1.92115 1.47497 -0.537497 -0.228324 0.805842
1.65556 -1.97084 1.41362 -0.746128 -0.227255 0.625073
1.68069 -1.86778 1.4791 -0.294372 -0.139884 0.929416
1.67185 -1.81254 1.48 -0.119998 -0.0703368 0.985906
1.67231 -1.70348 1.48 0 0 1
1.66509 -1.5407 1.48 0 0 1
1.67928 -1.44565 1.48 0 0 1
1.65623 -1.34091 1.48 0 0 1
1.67377 -1.22406 1.48 0 0 1
1.6623 -1.12978 1.48 0 0 1
1.67837 -0.984952 1.48 0 0 1
1.66101 -0.888587 1.48 0 0 1
1.68322 -0.800658 1.48 0 0 1
1.65505 -0.55331 1.48 0 0 1
1.66873 -0.506843 1.48 0 0 1
1.65893 -0.429001 1.48 0 0 1
1.66859 -0.169863 1.48 -0.00158615 0.000855068 0.999997
1.65808 -0.098147 1.47477 -0.247118 0.216244 0.926467
1.67173 -0.0490642 1.4644 -0.443102 0.18063 0.857417
1.68157 0.022599 1.47578 -0.465606 -0.0314612 0.874554
1.66486 0.0974233 1.4697 -0.493912 -0.148463 0.843928
1.65594 0.240798 1.48 -0.0638867 -0.0436028 0.99689
1.66337 0.196032 1.4788 -0.157977 -0.0729686 0.978743
1.67832 0.360069 1.48 0 0 1
1.66409 0.478031 1.48 0 0 1
1.68497 0.664536 1.48 0 0 1
1.69273 -6.70218 1.34062 0.00716254 -0.0490035 0.988051
1.69893 -6.56958 1.43451 0.140553 -0.607847 0.756851
1.69547 -6.31326 1.48 0 0 1
1.70956 -6.19082 1.48 0 0 1
1.70273 -6.13885 1.48 -0.12499 0.20009 0.960653
1.70113 -6.01766 1.37804 -0.426215 0.673465 0.59239
1.7124 -5.97885 1.34261 -0.472539 0.619748 0.615548
1.7055 -5.9415 1.29711 -0.419324 0.531146 0.724182
1.71136 -5.86836 1.26805 -0.301221 0.280268 0.900597
1.69425 -5.77671 1.25436 -0.301272 -0.0137745 0.952138
1.71313 -5.82517 1.25549 -0.241069 0.111128 0.96218
1.69102 -5.69792 1.24964 -0.332472 0.0640802 0.940293
1.70147 -5.54848 1.24142 -0.234192 0.0079358 0.971668
1.7161 -5.50512 1.24642 -0.214778 -0.00807392 0.976585
1.68623 -5.33463 1.24892 -0.125412 -0.17681 0.975463
1.70474 -5.19676 1.26804 -0.191166 0.0378323 0.9781
1.70938 -5.24182 1.26826 -0.128895 -0.0931978 0.983897
1.70483 -5.15252 1.26435 -0.18898 0.117977 0.972322
1.6895 -5.00855 1.24477 -0.115256 -0.0716955 0.98882
1.68739 -4.79657 1.26246 -0.358096 -0.0587674 0.928895
1.68827 -4.75413 1.26607 -0.461796 -0.0133813 0.880781
1.69257 -4.69672 1.26636 -0.52212 0.113979 0.842819
1.69276 -4.60385 1.2466 -0.442339 0.0617012 0.893825
1.71127 -4.50887 1.25419 -0.45469 -0.0833157 0.88257
1.68652 -4.43213 1.25505 -0.519184 -0.290884 0.802842
1.71561 -4.41519 1.29002 -0.637475 -0.383618 0.664698
1.70495 -4.35893 1.31585 -0.706904 -0.392626 0.585405
1.68937 -4.30368 1.32954 -0.759843 -0.355112 0.540822
1.69475 -4.22978 1.41373 -0.720429 -0.476296 0.499442
1.68549 -4.0188 1.48 0 0 1
1.70276 -3.88301 1.48 0 0 1
1.71181 -3.76977 1.48 0 0 1
1.70944 -3.57312 1.48 0 0 1
1.68813 -3.53095 1.48 0 0 1
1.70917 -3.32317 1.48 0 0 1
1.70381 -3.15367 1.4587 -0.440589 0.451761 0.740868
1.69541 -3.10294 1.39237 -0.552964 0.459556 0.687523
1.70221 -3.06379 1.36314 -0.679884 0.209429 0.660327
1.69677 -2.98049 1.38157 -0.669408 -0.334282 0.651465
1.70583 -2.83777 1.47847 -0.388079 -0.223971 0.889386
1.7097 -2.71871 1.48 -0.0722717 0.0364829 0.986825
1.71423 -2.64513 1.47875 -0.202812 0.0923901 0.961071
1.71329 -2.57841 1.46971 -0.392434 0.278455 0.860821
1.70666 -2.32697 1.40963 -0.607126 -0.207595 0.754768
1.70089 -2.2195 1.43735 -0.753175 -0.0469103 0.647848
1.70113 -2.26329 1.42723 -0.747798 -0.118636 0.649536
1.68938 -2.14201 1.41785 -0.812081 -0.0476127 0.574881
1.70017 -2.04019 1.44794 -0.666175 -0.0558526 0.712283
1.7112 -2.08849 1.47023 -0.592633 -0.0741299 0.787664
1.68669 -2.08395 1.42922 -0.828749 -0.0682914 0.546543
1.68549 -1.95889 1.45082 -0.670215 -0.218447 0.692931
1.70353 -1.63943 1.48 0 0 1
1.71499 -1.68339 1.48 0 0 1
1.71349 -1.59583 1.48 0 0 1
1.68881 -1.39551 1.48 0 0 1
1.68905 -1.17031 1.48 0 0 1
1.70008 -1.08244 1.48 0 0 1
1.68864 -1.03388 1.48 0 0 1
1.69891 -0.854833 1.48 0 0 1
1.69282 -0.717126 1.48 0 0 1
1.68566 -0.619932 1.48 0 0 1
1.70025 -0.567237 1.48 0 0 1
1.71645 -0.485375 1.48 0 0 1
1.70866 -0.334724 1.48 0 0 1
1.70241 -0.241708 1.48 0 0 1
1.69175 -0.131571 1.48 -0.0676244 0.0457327 0.99438
1.70575 -0.0238863 1.48 -0.170852 -0.00227476 0.964408
1.70395 0.0622133 1.48 -0.154543 -0.0248931 0.96869
1.69949 0.146683 1.48 -0.0601876 -0.0200346 0.994771
1.70434 0.228336 1.48 -0.00380944 -0.00205361 0.999976
1.68879 0.286782 1.48 -0.00122713 -0.000661527 0.999992
1.6999 0.401209 1.48 0 0 1
1.69348 0.512774 1.48 0 0 1
1.7009 0.624123 1.48 0 0 1
1.70832 0.708004 1.48 0 0 1
1.73625 -6.66522 1.34137 0.0479683 -0.308621 0.935892
1.74171 -6.70781 1.33951 0.0410317 -0.0298345 0.995148
1.72919 -6.62181 1.37385 0.0898758 -0.565317 0.790464
1.719 -6.53756 1.46451 0.12151 -0.497361 0.855478
1.73044 -6.58429 1.40968 0.0789667 -0.695169 0.70345
1.72598 -6.41455 1.48 0 0 1
1.71952 -6.35862 1.48 0 0 1
1.73554 -6.23248 1.48 0 0 1
1.74028 -6.08717 1.47485 -0.288154 0.272249 0.880205
1.74605 -6.01369 1.41852 -0.534678 0.619401 0.556977
1.74001 -5.74176 1.26578 -0.223354 0.0111451 0.973551
1.74584 -5.63215 1.25442 -0.150568 0.121906 0.979421
1.72641 -5.45549 1.24823 -0.196226 -0.00232098 0.98014
1.73234 -5.30904 1.25594 -0.113374 -0.193639 0.972334
1.73587 -5.35106 1.2494 -0.170278 -0.0846592 0.975953
1.74077 -5.0611 1.25004 0.00882542 0.147501 0.984876
1.74137 -5.00971 1.24377 0.0592256 -0.0108861 0.996638
1.72289 -4.89967 1.2637 -0.0405546 -0.127039 0.990604
1.73116 -4.95586 1.25222 0.0293038 -0.17406 0.984053
1.72817 -4.82345 1.27153 -0.271129 -0.1787 0.936875
1.73721 -4.75588 1.29878 -0.367832 -0.123411 0.900229
1.73786 -4.65804 1.28164 -0.309086 0.25898 0.908188
1.72616 -4.56205 1.26315 -0.364197 0.0218538 0.925914
1.71761 -4.46606 1.2653 -0.553358 -0.237601 0.784875
1.7293 -4.35554 1.35263 -0.719562 -0.439836 0.533823
1.71679 -4.31243 1.37329 -0.773002 -0.396945 0.494622
1.72606 -4.23012 1.46367 -0.560965 -0.338664 0.729031
1.73731 -4.18531 1.48 -0.20395 -0.115378 0.962696
1.72741 -4.11779 1.48 -0.0345489 -0.0186247 0.997299
1.7339 -4.04978 1.48 0 0 1
1.74471 -3.84647 1.48 0 0 1
1.72393 -3.7228 1.48 0 0 1
1.7179 -3.62894 1.48 0 0 1
1.74284 -3.53163 1.48 0 0 1
1.72192 -3.48984 1.48 0 0 1
1.71685 -3.40682 1.48 0 0 1
1.72867 -3.24425 1.48 -0.0495202 0.0329475 0.994413
1.72359 -3.19859 1.47944 -0.152525 0.117222 0.966734
1.74241 -3.13014 1.45788 -0.419177 0.292808 0.830355
1.72182 -3.03552 1.38825 -0.763801 -0.046134 0.631698
1.7458 -3.04257 1.42723 -0.803294 0.031773 0.574047
1.71903 -2.92196 1.44045 -0.637514 -0.383934 0.665005
1.73523 -2.96278 1.4301 -0.712355 -0.285594 0.63705
1.73971 -2.90463 1.4753 -0.441014 -0.258595 0.851535
1.73742 -2.75867 1.48 0 0 1
1.7241 -2.44733 1.37915 -0.504521 0.131192 0.832787
1.7369 -2.40363 1.40866 -0.681817 -0.170373 0.670104
1.74305 -2.3609 1.43613 -0.704697 -0.239254 0.655734
1.72629 -2.28646 1.45925 -0.699077 -0.180105 0.680155
1.72808 -2.23743 1.473 -0.568441 -0.0668142 0.79776
1.72278 -2.18812 1.46948 -0.585717 -0.0408286 0.784485
1.72509 -2.13543 1.4722 -0.496877 -0.0498065 0.834697
1.73384 -2.01001 1.48 -0.176002 -0.0460497 0.961553
1.72312 -1.96755 1.48 -0.265649 -0.0772404 0.945241
1.72628 -1.78942 1.48 0 0 1
1.74635 -1.65324 1.48 0 0 1
1.71753 -1.52591 1.48 0 0 1
1.7318 -1.44825 1.48 0 0 1
1.71947 -1.3595 1.48 0 0 1
1.71868 -1.29201 1.48 0 0 1
1.71759 -1.24912 1.48 0 0 1
1.74261 -1.19507 1.48 0 0 1
1.74059 -1.14082 1.48 0 0 1
1.73118 -1.05295 1.48 0 0 1
1.73816 -0.951195 1.48 0 0 1
1.7283 -0.784644 1.48 0 0 1
1.74447 -0.708081 1.48 0 0 1
1.72986 -0.631553 1.48 0 0 1
1.72801 -0.400436 1.48 0 0 1
1.72319 -0.172677 1.48 0 0 1
1.74155 -0.0540497 1.48 -0.00656829 7.20455e-09 0.999895
1.74608 0.203854 1.48 0 0 1
1.73158 0.306446 1.48 0 0 1
1.74117 0.475132 1.48 0 0 1
1.72279 0.548791 1.48 0 0 1
1.77588 -6.60126 1.38961 -0.237361 -0.664194 0.68656
1.77366 -6.63972 1.35091 -0.226364 -0.429047 0.848993
1.75911 -6.55579 1.44029 -0.132896 -0.600932 0.771856
1.76509 -6.47778 1.48 -0.0571793 -0.0695807 0.993474
1.77035 -6.42992 1.48 -0.0126081 -0.00679684 0.999502
1.75768 -6.38276 1.48 0 0 1
1.74864 -6.27635 1.48 0 0 1
1.76371 -6.18528 1.48 0 0 1
1.76261 -6.13402 1.48 -0.0422073 0.0227532 0.997856
1.75789 -6.04395 1.45403 -0.386564 0.385266 0.767636
1.75969 -5.95454 1.35662 -0.471468 0.671534 0.566222
1.7744 -5.99907 1.45107 -0.421551 0.541714 0.721382
1.74865 -5.92074 1.30811 -0.421127 0.543389 0.701826
1.77378 -5.7817 1.26748 -0.20294 0.049497 0.974459
1.75685 -5.82472 1.27038 -0.287687 0.148101 0.942272
1.75404 -5.56399 1.25192 -0.150221 0.0237712 0.98717
1.76658 -5.4739 1.25361 -0.227005 -0.0269901 0.972657
1.76711 -5.40923 1.2577 -0.247431 -0.0216921 0.968437
1.77726 -5.29124 1.26743 -0.15786 -0.140583 0.975503
1.77506 -5.216 1.27975 0.00950591 0.0128544 0.990289
1.77869 -4.94571 1.25304 -0.0556269 -0.236725 0.969297
1.75072 -4.86306 1.26999 -0.139863 -0.212972 0.965463
1.77598 -4.81429 1.28505 -0.0350369 -0.259417 0.958426
1.77508 -4.73956 1.31191 -0.0638843 -0.040691 0.973475
1.76152 -4.68895 1.30008 -0.165301 0.201532 0.953433
1.7616 -4.6033 1.27197 -0.242433 0.0900878 0.96356
1.7739 -4.50838 1.29709 -0.592271 -0.314425 0.728523
1.75433 -4.44117 1.31284 -0.671488 -0.401609 0.622365
1.75757 -4.40178 1.34639 -0.695835 -0.449647 0.557577
1.75099 -4.31919 1.4136 -0.741211 -0.449213 0.495569
1.74947 -4.28246 1.45297 -0.623765 -0.360593 0.665747
1.77874 -4.21673 1.48 -0.0637578 -0.0343707 0.992433
1.76019 -3.94223 1.48 0 0 1
1.75948 -3.75855 1.48 0 0 1
1.77842 -3.71343 1.48 0 0 1
1.75137 -3.66478 1.48 0 0 1
1.76541 -3.49106 1.48 0 0 1
1.75795 -3.43147 1.48 0 0 1
1.75562 -3.32233 1.48 0 0 1
1.77057 -3.37612 1.48 0 0 1
1.77031 -3.18124 1.48 -0.10751 0.0861728 0.972512
1.77622 -3.09406 1.47523 -0.395007 0.110386 0.893887
1.76368 -2.99218 1.45942 -0.589333 -0.135219 0.763818
1.76835 -2.94686 1.48 -0.375139 -0.1418 0.910536
1.75241 -2.8303 1.48 -0.0559688 -0.0301719 0.99555
1.76566 -2.71771 1.48 0 0 1
1.75983 -2.53866 1.46304 -0.344287 0.248535 0.862766
1.75418 -2.49677 1.44129 -0.580873 0.303751 0.732968
1.75108 -2.45697 1.41797 -0.721797 0.130945 0.658823
1.7635 -2.40751 1.44936 -0.647632 -0.134149 0.714953
1.76647 -2.36496 1.47586 -0.517556 -0.16157 0.831365
1.75858 -2.31917 1.48 -0.411974 -0.163379 0.870534
1.75949 -2.16132 1.48 -0.106682 -0.0113016 0.990891
1.76353 -2.0812 1.48 -0.0194339 -0.0104765 0.999134
1.76764 -1.98077 1.48 0 0 1
1.76447 -1.93223 1.48 0 0 1
1.75087 -1.8785 1.48 0 0 1
1.76239 -1.83227 1.48 0 0 1
1.74902 -1.7262 1.48 0 0 1
1.76911 -1.52908 1.48 0 0 1
1.77371 -1.4159 1.48 0 0 1
1.76591 -1.27683 1.48 0 0 1
1.75035 -1.32956 1.48 0 0 1
1.75906 -0.990562 1.48 0 0 1
1.77519 -1.0339 1.48 0 0 1
1.76301 -0.893755 1.48 0 0 1
1.77695 -0.820674 1.48 0 0 1
1.77074 -0.658655 1.48 0 0 1
1.77039 -0.605187 1.48 0 0 1
1.75066 -0.446392 1.48 0 0 1
1.74978 -0.290402 1.48 0 0 1
1.75893 -0.243159 1.48 0 0 1
1.76534 -0.196489 1.48 0 0 1
1.75896 -0.00441504 1.48 0 0 1
1.75425 0.0632604 1.48 0 0 1
1.75213 0.14377 1.48 0 0 1
1.74837 0.251245 1.48 0 0 1
1.76134 0.424925 1.48 0 0 1
1.75066 0.600041 1.48 0 0 1
1.76472 0.698858 1.48 0 0 1
1.79727 -6.70927 1.35102 -0.523888 -0.0377599 0.817125
1.80205 -6.58425 1.43021 -0.451898 -0.584251 0.645793
1.78712 -6.31964 1.48 0 0 1
1.78027 -6.22526 1.48 0 0 1
1.79525 -5.95294 1.38702 -0.385607 0.733804 0.543219
1.79178 -5.92295 1.34539 -0.390559 0.631455 0.643267
1.78549 -5.87257 1.2945 -0.403251 0.406499 0.802351
1.79784 -5.83138 1.28523 -0.390514 0.241416 0.883485
1.78282 -5.73304 1.27309 -0.174016 0.0174514 0.981301
1.80735 -5.62533 1.26781 -0.243219 0.119662 0.961688
1.79814 -5.58078 1.25817 -0.230714 0.0498115 0.970135
1.80162 -5.51354 1.26393 -0.251869 -0.0436439 0.966681
1.80458 -5.44097 1.26821 -0.190243 0.00166059 0.979588
1.80594 -5.33285 1.26632 -0.0605381 -0.0709337 0.991534
1.78898 -5.16958 1.26988 0.149806 0.15305 0.975163
1.78847 -5.08808 1.25342 0.0351688 0.167586 0.982717
1.78474 -4.99331 1.24364 -0.0560673 -0.0770117 0.983586
1.80052 -4.57452 1.28419 -0.438888 -0.202664 0.855575
1.80797 -4.473 1.36133 -0.710504 -0.431423 0.555054
1.7886 -4.4104 1.38117 -0.716667 -0.451368 0.528865
1.78269 -4.36407 1.42093 -0.647879 -0.483966 0.571594
1.78715 -4.29451 1.48 -0.310529 -0.253848 0.894479
1.8092 -4.25081 1.48 0 0 1
1.78628 -4.1718 1.48 0 0 1
1.80285 -4.12737 1.48 0 0 1
1.7895 -4.05811 1.48 0 0 1
1.79017 -4.01388 1.48 0 0 1
1.78904 -3.8686 1.48 0 0 1
1.78081 -3.81909 1.48 0 0 1
1.7857 -3.63449 1.48 0 0 1
1.79067 -3.52863 1.48 0 0 1
1.8006 -3.3127 1.48 0 0 1
1.80333 -3.21141 1.48 0 0 1
1.78901 -3.04695 1.48 -0.327898 -0.00421995 0.918288
1.78369 -2.87918 1.48 -0.0406883 -0.0219344 0.996417
1.78291 -2.67138 1.48 0 0 1
1.8096 -2.56585 1.48 -0.0245021 0.0140353 0.999066
1.78948 -2.61904 1.48 -0.00299792 0.00199167 0.999682
1.78634 -2.43445 1.47955 -0.409528 -0.015181 0.886388
1.79774 -2.27159 1.48 -0.000320721 -0.000172896 0.999998
1.7912 -2.20486 1.48 0 0 1
1.80263 -2.00788 1.48 0 0 1
1.79197 -1.89703 1.48 0 0 1
1.7968 -1.78049 1.48 0 0 1
1.79404 -1.7237 1.48 0 0 1
1.80808 -1.67193 1.48 0 0 1
1.79059 -1.60448 1.48 0 0 1
1.78371 -1.48837 1.48 0 0 1
1.80669 -1.3426 1.48 0 0 1
1.79817 -1.24454 1.48 0 0 1
1.78039 -1.11138 1.48 0 0 1
1.80574 -1.07197 1.48 0 0 1
1.80756 -0.99657 1.48 0 0 1
1.79791 -0.775862 1.48 0 0 1
1.78691 -0.478146 1.48 0 0 1
1.79463 -0.426789 1.48 0 0 1
1.80814 -0.380732 1.48 0 0 1
1.7904 -0.325109 1.48 0 0 1
1.79721 -0.273553 1.48 0 0 1
1.79088 -0.152259 1.48 0 0 1
1.79386 -0.068273 1.48 0 0 1
1.79567 0.0436021 1.48 0 0 1
1.80051 0.132143 1.48 0 0 1
1.79585 0.222573 1.48 0 0 1
1.78722 0.492387 1.48 0 0 1
1.79549 0.577719 1.48 0 0 1
1.78411 0.632333 1.48 0 0 1
1.8091 0.697523 1.48 0 0 1
1.82243 -6.67138 1.3786 -0.710381 -0.247529 0.648085
1.81742 -6.56043 1.46711 -0.35785 -0.379384 0.823383
1.81283 -6.51797 1.48 -0.170627 -0.197877 0.948923
1.81333 -6.46927 1.48 0 0 1
1.82422 -6.39588 1.48 0 0 1
1.82884 -6.34705 1.48 0 0 1
1.82477 -6.24735 1.48 0 0 1
1.83497 -6.19968 1.48 0 0 1
1.83273 -6.12656 1.48 0 0 1
1.81538 -6.0806 1.48 -0.0187591 0.0101128 0.999706
1.83985 -6.0448 1.48 -0.0467954 0.15662 0.963456
1.82475 -5.98252 1.4427 -0.20912 0.571646 0.74466
1.8111 -6.00774 1.47837 -0.149565 0.455283 0.874982
1.83883 -5.89573 1.34388 -0.552928 0.528466 0.638694
1.83388 -5.94993 1.40895 -0.335565 0.728073 0.595896
1.84021 -5.81875 1.30915 -0.588651 0.270972 0.751649
1.81751 -5.77614 1.27951 -0.406382 0.119103 0.902185
1.81569 -5.67038 1.2819 -0.272443 0.141168 0.950057
1.84203 -5.58991 1.26685 -0.210143 0.0512693 0.974957
1.83712 -5.53687 1.27221 -0.234728 -0.0567224 0.970331
1.83478 -5.48172 1.27255 -0.187855 0.0108292 0.981481
1.83288 -5.23783 1.27109 0.0588441 0.0866398 0.989914
1.8155 -5.12778 1.2568 0.073844 0.0824379 0.988665
1.81578 -5.05528 1.25178 -0.15628 0.0680275 0.981399
1.82253 -4.95996 1.25398 -0.286179 -0.242664 0.921435
1.83179 -5.00413 1.2537 -0.329633 -0.05188 0.933364
1.82507 -4.88382 1.28247 -0.222266 -0.130314 0.958926
1.81797 -4.80144 1.28461 -0.0439997 -0.256736 0.948759
1.83802 -4.75152 1.30861 -0.273115 -0.213695 0.920651
1.84162 -4.69849 1.3155 -0.413914 0.0449189 0.889935
1.83292 -4.65276 1.29432 -0.417843 0.183717 0.875071
1.83958 -4.59797 1.29458 -0.572654 -0.201064 0.785997
1.81369 -4.51163 1.33882 -0.655162 -0.435774 0.610748
1.82669 -4.41256 1.4427 -0.673672 -0.40188 0.615694
1.81565 -4.36626 1.45269 -0.54998 -0.382561 0.712503
1.8296 -4.29847 1.48 -0.106365 -0.0726342 0.985964
1.8247 -4.20388 1.48 0 0 1
1.82948 -4.08475 1.48 0 0 1
1.83381 -3.99611 1.48 0 0 1
1.81287 -3.93115 1.48 0 0 1
1.81454 -3.75328 1.48 0 0 1
1.83521 -3.70658 1.48 0 0 1
1.83 -3.56697 1.48 0 0 1
1.8351 -3.51658 1.48 0 0 1
1.81673 -3.45177 1.48 0 0 1
1.84086 -3.41559 1.48 0 0 1
1.81146 -3.26496 1.48 0 0 1
1.81424 -3.00165 1.48 0 0 1
1.84072 -2.96289 1.48 0 0 1
1.81149 -2.92316 1.48 0 0 1
1.83033 -2.87982 1.48 0 0 1
1.81892 -2.80321 1.48 0 0 1
1.83651 -2.75318 1.48 0 0 1
1.84114 -2.69745 1.48 0 0 1
1.82391 -2.65551 1.48 0 0 1
1.84075 -2.60904 1.48 -0.00113521 0.000611973 0.999985
1.81131 -2.4802 1.48 -0.0359545 -0.00221869 0.999328
1.81311 -2.38852 1.48 -0.0183674 0 0.999819
1.82001 -2.11564 1.48 0 0 1
1.83055 -2.04605 1.48 0 0 1
1.81672 -1.96259 1.48 0 0 1
1.83935 -1.84149 1.48 0 0 1
1.83168 -1.63035 1.48 0 0 1
1.82008 -1.56373 1.48 0 0 1
1.83243 -1.5046 1.48 0 0 1
1.81213 -1.39223 1.48 0 0 1
1.82926 -1.20298 1.48 0 0 1
1.8182 -1.15265 1.48 0 0 1
1.81571 -0.950464 1.48 0 0 1
1.81553 -0.893776 1.48 0 0 1
1.82612 -0.82849 1.48 0 0 1
1.84202 -0.768838 1.48 0 0 1
1.8188 -0.729567 1.48 0 0 1
1.82581 -0.648145 1.48 0 0 1
1.82102 -0.601932 1.48 0 0 1
1.81763 -0.537903 1.48 0 0 1
1.84099 -0.449751 1.48 0 0 1
1.83969 -0.295252 1.48 0 0 1
1.82478 -0.20503 1.48 0 0 1
1.82357 -0.123161 1.48 0 0 1
1.82551 -0.0345884 1.48 0 0 1
1.83157 0.0745883 1.48 0 0 1
1.83026 0.193405 1.48 0 0 1
1.8292 0.258548 1.48 0 0 1
1.81185 0.311684 1.48 0 0 1
1.83164 0.480707 1.48 0 0 1
1.82814 0.54041 1.48 0 0 1
1.86156 -6.66178 1.43165 -0.684384 -0.282022 0.662985
1.84513 -6.69822 1.40761 -0.767201 -0.150408 0.616386
1.86374 -6.63159 1.46184 -0.554162 -0.315732 0.763386
1.86465 -6.50048 1.48 -4.69964e-06 -2.53349e-06 1
1.84761 -6.43838 1.48 0 0 1
1.86741 -6.37006 1.48 0 0 1
1.86994 -6.28063 1.48 0 0 1
1.87277 -6.16475 1.48 0 0 1
1.86321 -6.08406 1.48 0 0 1
1.87307 -6.00855 1.47961 -0.212046 0.262558 0.939919
1.85984 -5.91872 1.38884 -0.555348 0.533191 0.635601
1.87331 -5.86361 1.36358 -0.653465 0.416864 0.629335
1.84952 -5.74894 1.2978 -0.448816 0.150928 0.870964
1.85762 -5.35871 1.26101 -0.0400872 -0.000721665 0.996913
1.85479 -5.28389 1.27267 -0.00817905 -0.0311565 0.995122
1.85672 -5.18951 1.26157 -0.0552709 0.119166 0.989472
1.84794 -5.08868 1.26056 -0.24648 -0.00839069 0.967589
1.86459 -4.90511 1.29512 -0.425365 -0.105019 0.89526
1.84476 -4.83701 1.27802 -0.263552 -0.0575994 0.957575
1.87215 -4.72803 1.33618 -0.565336 -0.199725 0.796854
1.86376 -4.57543 1.33923 -0.721926 -0.346726 0.575337
1.86179 -4.43249 1.47144 -0.494527 -0.282456 0.793879
1.84628 -4.48498 1.39904 -0.707283 -0.467553 0.527291
1.85128 -4.34521 1.48 -0.182837 -0.0903337 0.96737
1.85981 -4.26161 1.48 0 0 1
1.86856 -4.18823 1.48 0 0 1
1.85594 -3.91178 1.48 0 0 1
1.85443 -3.86193 1.48 0 0 1
1.85637 -3.80611 1.48 0 0 1
1.85921 -3.64412 1.48 0 0 1
1.87278 -3.59878 1.48 0 0 1
1.85409 -3.47722 1.48 0 0 1
1.85845 -3.31611 1.48 0 0 1
1.85638 -3.23878 1.48 0 0 1
1.85218 -3.14404 1.48 0 0 1
1.84687 -3.08069 1.48 0 0 1
1.8707 -2.99714 1.48 0 0 1
1.86549 -2.91323 1.48 0 0 1
1.86665 -2.51601 1.48 0 0 1
1.85103 -2.465 1.48 0 0 1
1.85365 -2.40625 1.48 0 0 1
1.8462 -2.35432 1.48 0 0 1
1.85856 -2.29814 1.48 0 0 1
1.87012 -2.12235 1.48 0 0 1
1.8705 -1.92178 1.48 0 0 1
1.84451 -1.78712 1.48 0 0 1
1.8567 -1.67573 1.48 0 0 1
1.86756 -1.56832 1.48 0 0 1
1.8657 -1.47172 1.48 0 0 1
1.86669 -1.3949 1.48 0 0 1
1.8429 -1.29629 1.48 0 0 1
1.8665 -1.10024 1.48 0 0 1
1.85076 -0.9898 1.48 0 0 1
1.87203 -1.04182 1.48 0 0 1
1.86774 -0.720228 1.48 0 0 1
1.86381 -0.62203 1.48 0 0 1
1.8701 -0.565946 1.48 0 0 1
1.86304 -0.509317 1.48 0 0 1
1.85252 -0.349529 1.48 0 0 1
1.86599 -0.251666 1.48 0 0 1
1.86973 -0.112889 1.48 0 0 1
1.87033 -0.0115879 1.48 0 0 1
1.87317 0.281426 1.48 0 0 1
1.85326 0.377323 1.48 0 0 1
1.85023 0.435344 1.48 0 0 1
1.84359 0.628662 1.48 0 0 1
1.85572 0.702637 1.48 0 0 1
1.90042 -6.67236 1.47554 -0.401653 -0.11408 0.89585
1.8865 -6.7077 1.45076 -0.613713 -0.118242 0.754131
1.90436 -6.53623 1.48 -0.00258571 -0.00139391 0.999833
1.87683 -6.57108 1.48 -0.129893 -0.115612 0.973554
1.89642 -6.44394 1.48 0 0 1
1.88459 -6.23124 1.48 0 0 1
1.88264 -5.93337 1.43082 -0.512817 0.483221 0.689664
1.87908 -5.78705 1.32264 -0.569413 0.29304 0.762923
1.89091 -5.70042 1.31151 -0.441077 0.226919 0.862886
1.87947 -5.63482 1.28443 -0.341673 0.159714 0.919382
1.89821 -5.58092 1.28963 -0.39869 0.0274783 0.91376
1.9017 -5.52539 1.29002 -0.404295 -0.00569208 0.911022
1.88508 -5.48137 1.28293 -0.30944 0.0718199 0.942172
1.88307 -5.41626 1.27483 -0.216544 0.155382 0.956177
1.8985 -5.28019 1.2726 -0.068775 0.0150529 0.995158
1.89563 -5.07668 1.27495 -0.266836 -0.113781 0.956218
1.87566 -5.03282 1.27175 -0.350421 -0.0776561 0.931408
1.90167 -4.99034 1.28914 -0.487466 -0.201586 0.847067
1.88504 -4.85818 1.29842 -0.524989 -0.0568837 0.846786
1.9028 -4.7907 1.32854 -0.615352 -0.275515 0.73281
1.90254 -4.70813 1.36133 -0.733923 -0.192308 0.637071
1.90488 -4.66609 1.37539 -0.818574 -0.0317975 0.571805
1.87694 -4.67552 1.33937 -0.707901 0.0310224 0.693088
1.89243 -4.61605 1.35217 -0.806894 -0.173644 0.558356
1.892 -4.55352 1.40931 -0.735088 -0.431517 0.515039
1.8818 -4.50467 1.44707 -0.697174 -0.428345 0.574616
1.89739 -4.46011 1.48 -0.331227 -0.186294 0.911914
1.88103 -4.38264 1.48 -0.0787804 -0.0424692 0.995628
1.90212 -4.11666 1.48 0 0 1
1.90179 -4.05858 1.48 0 0 1
1.87639 -3.96875 1.48 0 0 1
1.89271 -3.83316 1.48 0 0 1
1.89568 -3.74809 1.48 0 0 1
1.88132 -3.69377 1.48 0 0 1
1.89144 -3.51657 1.48 0 0 1
1.89668 -3.42907 1.48 0 0 1
1.8974 -3.34835 1.48 0 0 1
1.89266 -3.18588 1.48 0 0 1
1.88518 -3.10459 1.48 0 0 1
1.87791 -3.04803 1.48 0 0 1
1.89118 -2.9525 1.48 0 0 1
1.89473 -2.81818 1.48 0 0 1
1.89951 -2.76856 1.48 0 0 1
1.87795 -2.72251 1.48 0 0 1
1.88577 -2.5641 1.48 0 0 1
1.886 -2.61503 1.48 0 0 1
1.89351 -2.43174 1.48 0 0 1
1.89164 -2.25296 1.48 0 0 1
1.88008 -2.19472 1.48 0 0 1
1.90342 -2.08743 1.48 0 0 1
1.89231 -2.04137 1.48 0 0 1
1.89766 -1.88157 1.48 0 0 1
1.88258 -1.71845 1.48 0 0 1
1.87856 -1.62932 1.48 0 0 1
1.89627 -1.35621 1.48 0 0 1
1.8838 -1.26547 1.48 0 0 1
1.87997 -1.1994 1.48 0 0 1
1.89371 -1.1396 1.48 0 0 1
1.8962 -0.998043 1.48 0 0 1
1.88183 -0.955482 1.48 0 0 1
1.88441 -0.890686 1.48 0 0 1
