ply
format ascii 1.0
comment Created by Open3D
element vertex 931
property double x
property double y
property double z
property double nx
property double ny
property double nz
end_header
-874.149 -456.879 253.053 0.867332 -0.325318 0.369027
-872.386 -464.007 237.99 0.601354 -0.69318 0.386613
-871.851 -473.503 221.545 0.755249 -0.57441 0.309072
-872.319 -476.521 212.796 0.743243 -0.61364 0.264754
-871.305 -487.201 160.209 0.598942 -0.743946 0.156528
-874.768 -487.546 189.38 0.560165 -0.790093 0.150337
-872.632 -488.688 153.115 0.589223 -0.804757 0.0608317
-872.588 -489.097 145.963 0.587713 -0.80587 0.0602605
-872.468 -489.814 132.901 0.584441 -0.808311 0.0589303
-873.979 -495.832 19.3021 0.598696 -0.709805 0.236928
-874.879 -494.68 52.809 0.554909 -0.802157 0.0920493
-873.139 -494.855 42.5344 0.485056 -0.722194 0.346733
-874.405 -495.602 26.8006 0.601682 -0.738401 0.172228
-874.918 -492.833 101.971 0.417709 -0.892416 0.0636692
-873.314 -498.542 7.73194 0.35109 -0.492453 0.59591
-872.858 -509.414 3.00315 0 6.10352e-08 1
-871.759 -543.92 3.00315 0 6.10352e-08 1
-873.232 -551.6 3.00315 0 9.15532e-08 1
-872.242 -583.03 3.00316 0 9.15532e-08 1
-871.243 -619.189 3.00316 0 9.15523e-08 1
-871.979 -639.874 3.00316 0 6.68985e-08 1
-873.806 -646.86 3.00316 0 7.92258e-08 1
-871.293 -673.1 3.00316 0 6.10352e-08 1
-872.716 -680.179 3.00316 0 6.48712e-08 1
-874.638 -708.403 3.00317 0 6.10352e-08 1
-873.041 -715.664 3.00317 0 9.15532e-08 1
-871.181 -744.737 3.00317 0 6.10352e-08 1
-872.14 -752.064 3.00317 0 9.15523e-08 1
-872.422 -804.677 3.00317 0 6.11183e-08 1
-872.9 -812.717 3.04891 -0.364628 0.0838753 0.851437
-873.38 -818.755 17.1276 -0.604568 0.317188 0.536814
-871.488 -821.221 38.7524 -0.83512 0.46184 0.143932
-871.119 -823.845 56.7859 -0.893369 0.437267 0.0705698
-873.054 -822.57 30.9577 -0.787553 0.218862 0.402265
-873.957 -824.765 22.284 -0.740936 0.124803 0.54847
-871.78 -830.673 104.934 -0.831069 0.475145 0.153132
-873.386 -831.508 79.3738 -0.842651 0.474271 0.131649
-874.146 -829.272 35.7015 -0.661962 0.526282 0.446412
-874.158 -831.716 64.798 -0.858274 0.471601 0.102474
-873.212 -832.744 91.7012 -0.897927 0.428739 0.060531
-872.305 -836.481 128.002 -0.918483 0.37078 0.0691664
-872.72 -836.464 119.997 -0.908231 0.394875 0.0672393
-873.745 -836.519 100.695 -0.88111 0.458862 0.0629849
-873.284 -839.203 134.682 -0.839705 0.529325 0.0703804
-872.655 -841.256 156.254 -0.792903 0.595442 0.0795189
-872.607 -843.268 172.85 -0.741801 0.663916 0.0882237
-873.505 -844.81 182.824 -0.698227 0.708793 0.0876584
-871.145 -846.702 209.451 -0.669259 0.732839 0.10658
-874.108 -847.362 195.783 -0.579721 0.80524 0.101518
-872.27 -853.188 239.299 -0.533259 0.52902 0.551136
-871.137 -859.043 243.445 -0.327354 0.531173 0.774822
-872.55 -865.998 253.659 -0.735514 0.502495 0.377374
-871.602 -871.418 271.787 -0.668891 0.710786 0.1962
-871.984 -877.193 297.811 -0.413524 0.888726 0.152647
-872.828 -875.341 282.667 -0.508508 0.837106 0.167234
-873.61 -882.053 332.053 -0.343418 0.897377 0.193106
-874.766 -894.655 359.667 -0.50557 0.819717 0.257305
-871.173 -897.368 381.473 -0.753585 0.613866 0.224475
-873.196 -897.454 374.778 -0.58115 0.738971 0.244443
-873.861 -902.9 387.764 -0.384343 0.839147 0.327148
-872.964 -909.665 406.525 -0.142223 0.926074 0.342666
-872.884 -920.294 426.593 -0.119254 0.71272 0.686625
-873.157 -939.153 446.235 -0.0665468 0.682936 0.724623
-872.656 -944.94 451.544 -0.0675314 0.664733 0.739363
-872.736 -954.3 459.924 -0.0497034 0.666549 0.741498
-876.207 -248.734 315.524 0.444629 -0.277936 0.823924
-875.719 -280.615 306.859 0.729807 0.059687 0.679299
-876.042 -297.115 307.569 0.722401 0 0.685604
-877.226 -311.083 308.596 0.677892 0 0.728239
-876.545 -322.66 308.071 0.666572 0.070297 0.737531
-878.389 -335.223 312.441 0.703579 0.34583 0.576243
-875.006 -340.54 308.614 0.482185 0.315827 0.813042
-877.941 -351.461 323.726 0.716926 0.506032 0.475012
-878.021 -374.075 318.285 0.903918 -0.0527423 0.416163
-876.62 -380.872 315.277 0.889947 -0.0149937 0.455429
-875.186 -391.271 304.028 0.694503 -0.598287 0.378188
-876.078 -397.168 299.86 0.854194 -0.116542 0.477048
-875.534 -441.129 267.943 0.713821 -0.478832 0.510479
-877.496 -453.825 261.575 0.91952 -0.0791642 0.366541
-876.194 -474.446 228.065 0.772297 -0.529822 0.338822
-878.293 -472.888 237.937 0.7637 -0.492197 0.414636
-877.171 -479.478 219.463 0.698244 -0.568251 0.384238
-876.18 -489 180.297 0.568535 -0.807958 0.0990793
-876.106 -489.412 172.744 0.542607 -0.823542 0.0936935
-875.594 -492.007 125.794 0.390508 -0.917032 0.0504569
-875.058 -495.409 34.198 0.616584 -0.771678 0.0836
-876.052 -492.657 113.24 0.426956 -0.895805 0.0520656
-875.332 -493.402 89.136 0.470303 -0.865836 0.0595289
-877.78 -495.414 67.9629 0.555452 -0.823411 0.0613624
-878.369 -500.332 3.00315 0.439978 -0.526921 0.681384
-876.176 -516.3 3.00315 0 9.15523e-08 1
-876.916 -531.2 3.00315 0 6.10352e-08 1
-875.785 -566.344 3.00316 0 9.10631e-08 1
-878.471 -578.104 3.00316 0 6.10352e-08 1
-877.657 -605.614 3.00316 0 9.04156e-08 1
-877.82 -614.726 3.00316 0 7.23201e-08 1
-877.8 -623.585 3.00316 0 7.20876e-08 1
-877.508 -634.619 3.00316 0 9.15523e-08 1
-877.69 -654.041 3.00316 0 7.82949e-08 1
-875.114 -687.186 3.00316 0 9.15532e-08 1
-878.886 -721.296 3.00317 0 7.16608e-08 1
-876.849 -735.155 3.00317 0 8.54622e-08 1
-877.816 -742.344 3.00317 0 6.10352e-08 1
-876.62 -775.769 3.00317 0 6.10352e-08 1
-875.932 -785.107 3.00317 0 9.15523e-08 1
-876.52 -819.421 3.00317 -0.411363 0.00586781 0.840686
-877.563 -828.807 11.2034 -0.410343 0.390994 0.711691
-877.526 -832.534 23.1029 -0.699623 0.524967 0.39376
-876.114 -833.228 44.0563 -0.796163 0.502702 0.205145
-876.347 -835.016 51.6123 -0.79264 0.526886 0.183634
-877.727 -834.248 29.7603 -0.732789 0.548219 0.294734
-875.192 -837.004 84.5838 -0.834041 0.544763 0.0565558
-877.972 -836.157 37.27 -0.807988 0.579584 0.0943371
-877.332 -837.227 59.1168 -0.795483 0.598275 0.0853099
-876.855 -838.075 75.5203 -0.787263 0.610797 0.077473
-876.064 -840.974 115.25 -0.768212 0.634563 0.0605192
-876.499 -839.933 95.1161 -0.789261 0.610683 0.0547559
-876.839 -845.667 149.227 -0.645131 0.748986 0.0724311
-878.054 -844.484 121.964 -0.70623 0.698153 0.0538702
-875.967 -845.463 162.144 -0.646818 0.748866 0.0787765
-876.649 -843.941 141.435 -0.718222 0.690507 0.0626795
-875.801 -849.274 205.01 -0.567011 0.812517 0.124233
-876.18 -847.815 189.034 -0.557105 0.82465 0.0917095
-877.99 -853.688 225.363 -0.610584 0.72447 0.255882
-878.017 -868.637 248.911 -0.217391 0.805293 0.498844
-875.482 -871.499 259.129 -0.439949 0.851178 0.253463
-877.151 -874.499 268.275 -0.288481 0.920026 0.218519
-876.357 -877.535 290.982 -0.246265 0.953787 0.155671
-877.142 -880.166 308.796 -0.418006 0.887348 0.16168
-876.623 -888.152 341.147 -0.799445 0.525506 0.283232
-875.165 -891.816 350.702 -0.688837 0.623152 0.30109
-877.193 -914.046 417.562 -0.188738 0.8774 0.436313
-877.233 -950.333 455.514 -0.221665 0.664655 0.708268
-877.301 -976.341 476.781 -0.129669 0.715517 0.684044
-875.149 -982.51 480.526 -0.145961 0.26466 0.952128
-876.798 -990.148 483.92 0.0174358 0.583064 0.785658
-877.837 -996.073 489.547 -0.036184 0.630264 0.747258
-882.277 -218.9 337.573 0.497617 -0.558135 0.663765
-881.272 -231.615 329.483 0.533674 -0.398949 0.740401
-881.785 -242.563 324.386 0.612253 -0.280039 0.734692
-881.241 -254.307 315.946 0.405779 -0.408674 0.809252
-882.565 -277.295 312.44 0.438371 0.0221975 0.895816
-880.09 -304.492 310.88 0.540048 0 0.831448
-879.667 -339.345 318.094 0.856828 0.324244 0.385733
-881.901 -340.992 325.512 0.872217 0.311627 0.368778
-881.713 -349.042 328.888 0.840688 0.235747 0.456133
-879.857 -364.434 328.006 0.700663 -0.333259 0.603034
-882.476 -379.875 327.095 0.900586 -0.0502022 0.431265
-879.358 -385.93 320.546 0.849506 -0.286751 0.420344
-880.417 -392.819 310.996 0.749537 -0.494395 0.40241
-880.049 -404.597 303.931 0.800919 -0.403975 0.416204
-882.521 -403.101 310.514 0.852195 -0.270566 0.436632
-879.399 -409.093 296.842 0.848114 -0.326548 0.405015
-879.794 -419.781 294.694 0.748902 -0.392858 0.497445
-880.466 -432.785 281.399 0.792565 -0.339959 0.492014
-882.266 -439.485 278.475 0.797895 -0.396751 0.447734
-882.344 -445.741 274.889 0.916582 -0.103136 0.384246
-880.091 -449.561 268.468 0.920172 -0.11558 0.366293
-880.569 -456.812 269.474 0.834198 -0.347148 0.390206
-881.175 -461.527 261.799 0.59945 -0.721071 0.319474
-880.328 -464.008 254.757 0.594477 -0.733305 0.325208
-879.766 -468.469 243.753 0.778499 -0.481568 0.390219
-880.876 -477.441 232.409 0.599704 -0.730101 0.324887
-882.539 -484.307 217.291 0.754986 -0.545707 0.342197
-879.271 -491.738 151.103 0.472605 -0.868498 0.0735699
-879.432 -491.082 161.953 0.503844 -0.843963 0.0959767
-880.09 -488.616 202.916 0.623304 -0.749507 0.181345
-881.464 -495.845 99.0246 0.504474 -0.861578 0.0452642
-879.799 -498.376 39.2933 0.506013 -0.692509 0.395098
-881.087 -498.427 46.9649 0.515231 -0.725895 0.315183
-881.823 -499.533 26.0505 0.577992 -0.736006 0.223737
-880.499 -501.875 10.0145 0.424229 -0.492948 0.561345
-880.33 -508.944 3.00315 0 6.10352e-08 1
-881.577 -537.303 3.00315 0 9.15532e-08 1
-882.109 -554.465 3.00315 0 9.15532e-08 1
-882.147 -562.122 3.00316 0 6.10352e-08 1
-881.657 -585.058 3.00316 0 9.15532e-08 1
-879.466 -593.575 3.00316 0 6.10352e-08 1
-879.72 -667.727 3.00316 0 9.15523e-08 1
-879.595 -676.934 3.00316 0 6.10352e-08 1
-882.504 -697.982 3.00317 0 8.18944e-08 1
-881.455 -712.96 3.00317 0 7.68324e-08 1
-879.984 -728.629 3.00317 0 7.71811e-08 1
-879.36 -751.702 3.00317 0 9.15523e-08 1
-880.714 -760.739 3.00317 0 6.10352e-08 1
-879.18 -798.404 3.00317 0 9.15523e-08 1
-880.672 -805.187 3.00317 0 6.10352e-08 1
-878.933 -832.032 3.69531 -0.602179 0.546216 0.580269
-880.372 -835.231 14.9927 -0.670186 0.443563 0.385853
-879.58 -841.925 70.1625 -0.749191 0.626877 0.121148
-880.965 -841.105 43.1449 -0.707156 0.611179 0.273634
-882.191 -843.629 35.2981 -0.710608 0.69527 0.0738395
-882.022 -841.07 26.7653 -0.678153 0.615859 0.343425
-879.922 -844.056 88.3463 -0.722129 0.687398 0.0488276
-880.112 -843.864 80.7989 -0.728193 0.682216 0.0491456
-879.745 -846.081 130.385 -0.63963 0.760785 0.056403
-882.321 -846.998 104.28 -0.695086 0.715408 0.0415445
-881.387 -845.899 95.6426 -0.662157 0.742919 0.0564475
-879.238 -848.171 176.805 -0.605242 0.790815 0.0650224
-881.235 -850.733 183.39 -0.687225 0.720871 0.0776971
-882.128 -850.071 164.133 -0.695345 0.715369 0.0573623
-881.291 -851.264 193.831 -0.68443 0.72363 0.0790329
-880.391 -852.816 209.858 -0.626673 0.757322 0.136017
-882.456 -852.931 202.406 -0.678716 0.722053 0.0967579
-878.931 -858.441 237.417 -0.622457 0.641874 0.420283
-881.929 -858.254 230.197 -0.772151 0.548008 0.266359
-882.526 -873.151 261.077 -0.278799 0.913835 0.288304
-879.132 -876.429 276.954 -0.262475 0.93805 0.198263
-880.209 -877.872 284.932 -0.374909 0.908198 0.174027
-880.55 -880.687 300.539 -0.582573 0.777455 0.167895
-882.692 -881.559 293.486 -0.54263 0.817091 0.185874
-879.896 -884.649 320.385 -0.7168 0.65673 0.186687
-882.355 -888.998 328.621 -0.485937 0.850563 0.18899
-882.672 -894.735 357.644 -0.297836 0.931041 0.189851
-881.343 -897.666 371.896 -0.159466 0.909588 0.28338
-879.629 -906.368 390.682 -0.492715 0.782988 0.366604
-882.35 -909.555 396.605 -0.305095 0.888704 0.286961
-880.337 -925.846 428.842 -0.269809 0.824219 0.487142
-881.861 -929.574 436.621 0.0172499 0.826759 0.560643
-880.398 -939.279 443.745 -0.329394 0.492531 0.787002
-880.343 -945.369 449.361 -0.295026 0.672615 0.675641
-880.465 -956.962 461.141 -0.12703 0.724907 0.675698
-878.977 -962.006 466.083 -0.0426576 0.46688 0.865054
-882.688 -973.822 471.932 -0.0754143 0.70753 0.701128
-885.608 -228.143 333.853 0.386668 -0.414241 0.818445
-883.326 -249.393 320.864 0.443536 -0.563932 0.691002
-883.392 -264.332 313.236 0.407806 -0.171551 0.89123
-884.6 -288.408 313.041 0.232655 0 0.960719
-884.418 -297.521 313.015 0.246488 0 0.957559
-883.164 -313.042 312.833 0.35106 0.00846346 0.932188
-884.365 -320.692 314.514 0.639573 0.227759 0.697371
-883.722 -329.187 314.722 0.769368 0.173618 0.58839
-885.105 -339.709 332.481 0.845757 0.378335 0.371698
-883.948 -356.126 333.607 0.787707 0.0228803 0.60553
-884.332 -364.536 334.022 0.858485 -0.0661411 0.500873
-884.617 -375.344 332.696 0.900412 -0.110996 0.42034
-884.47 -386.009 331.155 0.856072 -0.29876 0.399146
-884.766 -396.764 315.795 0.862648 -0.156477 0.444234
-883.032 -412.151 304.138 0.897244 -0.121471 0.413118
-884.471 -419.175 301.972 0.424281 -0.709726 0.514939
-886.429 -430.238 293.415 0.908881 -0.0467504 0.409091
-884.622 -435.041 287.885 0.861053 -0.269103 0.408874
-885.015 -447.625 282.179 0.942919 -0.0427592 0.326452
-882.986 -453.1 275.864 0.920604 -0.0447362 0.376787
-883.869 -470.438 250.262 0.787372 -0.478389 0.379692
-886.19 -475.988 245.905 0.675447 -0.660639 0.319621
-884.443 -484.12 224.355 0.771308 -0.539814 0.336034
-883.399 -491.063 196.527 0.576777 -0.797819 0.121006
-885.109 -495.458 147.31 0.547671 -0.831654 0.0566893
-885.705 -495.021 160.986 0.566186 -0.818769 0.0654051
-884.538 -497.145 109.033 0.567384 -0.818375 0.0572442
-885.206 -496.596 131.267 0.565483 -0.820732 0.051828
-882.949 -498.458 55.9743 0.572197 -0.812565 0.0702227
-883.699 -497.607 86.0744 0.56144 -0.821216 0.0613056
-886.502 -499.284 76.8579 0.605749 -0.794256 0.0443425
-885.829 -502.68 20.7925 0.425473 -0.658915 0.485192
-883.352 -516.128 3.00315 0 9.15523e-08 1
-883.283 -523.409 3.00315 0 6.12579e-08 1
-885.129 -604.644 3.00316 0 9.15523e-08 1
-885.328 -627.773 3.00316 0 6.10352e-08 1
-885.901 -634.755 3.00316 0 9.15523e-08 1
-884.731 -642.406 3.00316 0 6.10352e-08 1
-883.799 -683.507 3.00316 0 9.08743e-08 1
-886.653 -718.373 3.00317 0 9.15532e-08 1
-886.266 -755.836 3.00317 0 7.64793e-08 1
-885.112 -767.593 3.00317 0 9.15523e-08 1
-883.261 -782.387 3.00317 0 9.15523e-08 1
-884.804 -815.791 3.00317 0 9.15523e-08 1
-883.947 -823.958 3.00318 0 6.10352e-08 1
-884.29 -837.215 3.57212 -0.412965 0.265241 0.761714
-883.251 -842.276 15.9596 -0.655227 0.613798 0.269197
-883.745 -846.301 75.4463 -0.700155 0.541876 0.207066
-886.43 -846.284 10.9616 -0.612261 0.388927 0.608335
-886.703 -846.783 3.43546 -0.58997 0.447452 0.628681
-884.895 -845.672 53.2311 -0.684029 0.35826 0.41017
-885.181 -847.707 46.3991 -0.624637 0.619412 0.375454
-883.454 -848.825 116.701 -0.682102 0.685038 0.13103
-884.739 -848.16 67.7695 -0.638377 0.637103 0.313686
-885.656 -849.967 83.988 -0.659474 0.638558 0.268068
-883.935 -851.181 154.167 -0.68956 0.695035 0.100689
-885.461 -850.862 110.216 -0.698277 0.663204 0.139363
-885.843 -850.464 91.5207 -0.685583 0.647558 0.195182
-885.394 -851.794 130.736 -0.731132 0.679007 0.0446688
-884.104 -853.577 177.028 -0.720227 0.683052 0.10043
-885.345 -852.575 138.751 -0.734335 0.672615 0.0665519
-886.288 -853.99 147.799 -0.745149 0.663508 0.0534561
-885.27 -855.882 189.839 -0.750568 0.645292 0.0961565
-886.283 -859.775 213.987 -0.661947 0.711304 0.122551
-885.516 -862.762 235.331 -0.523439 0.742076 0.335455
-883.568 -865.018 242.091 -0.268276 0.826132 0.448706
-885.53 -870.244 249.283 -0.484402 0.772509 0.364942
-885.473 -878.301 274.053 -0.437941 0.867415 0.211154
-885.79 -889.999 321.589 -0.630274 0.738378 0.180895
-883.279 -893.55 349.582 -0.380018 0.892715 0.181823
-884.135 -891.831 336.929 -0.498813 0.822913 0.176566
-885.039 -906.139 383.09 -0.441 0.791952 0.35219
-883.824 -912.25 406.459 -0.132946 0.929521 0.327367
-886.572 -916.766 417.346 -0.0728828 0.592402 0.742582
-885.638 -923.773 422.634 -0.105571 0.691966 0.647545
-886.091 -953.519 456.353 -0.0387149 0.744446 0.665686
-884.733 -965.988 467.259 -0.00302165 0.258812 0.964566
-883.414 -980.757 477.889 -0.180684 0.264734 0.945182
-883.974 -988.504 480.863 -0.0801824 0.679221 0.728227
-886.448 -996.087 472.878 -0.472943 -0.76702 0.282432
-890.049 -235.581 332.603 0.425045 -0.366064 0.824221
-888.162 -245.681 326.036 0.212913 -0.516489 0.825781
-888.36 -259.231 317.379 0.370404 -0.46743 0.789268
-890.587 -275.84 313.349 0.201345 -0.00470741 0.979376
-889.029 -303.235 313.349 0.25876 0 0.952678
-887.95 -333.51 326.737 0.766839 0.510397 0.371725
-887.817 -340.143 338.94 0.800402 0.37304 0.445352
-887.956 -347.214 340.939 0.887074 0.0697179 0.453351
-887.75 -357.285 340.595 0.889333 -0.00023409 0.456889
-890.268 -368.902 345.704 0.903055 -0.0239463 0.428179
-888.209 -375.136 340.455 0.901876 -0.0993248 0.420005
-887.397 -382.849 337.773 0.903436 -0.0253319 0.425533
-889.686 -389.569 336.373 0.621712 -0.663752 0.394556
-888.268 -392.039 328.122 0.692987 -0.5856 0.366999
-890.544 -400.323 327.466 0.899445 -0.0698502 0.425231
-887.137 -402.843 320.094 0.880815 -0.196989 0.42676
-887.499 -409.979 314.944 0.826457 -0.369372 0.399515
-887.876 -424.655 297.391 0.847631 -0.270448 0.451873
-889.665 -432.294 301.097 0.849731 -0.139404 0.490042
-888.177 -438.308 294.254 0.846737 -0.26036 0.436573
-887.938 -459.351 274.651 0.523925 -0.721529 0.445301
-887.422 -463.271 268.422 0.770729 -0.470342 0.382525
-889.342 -472.451 263.07 0.670084 -0.641717 0.355796
-887.649 -483.045 236.707 0.74593 -0.578644 0.328087
-887.366 -490.124 216.796 0.592355 -0.755789 0.214062
-887.297 -494.489 185.501 0.609848 -0.780124 0.0989692
-887.019 -495.82 170.139 0.595503 -0.797442 0.0641138
-888.666 -497.606 139.753 0.556158 -0.826668 0.0604487
-888.935 -497.137 154.55 0.548208 -0.831904 0.0635545
-888.243 -498.277 118.258 0.568307 -0.818688 0.0557109
-888.08 -499.197 99.088 0.592357 -0.802359 0.0475542
-890.591 -496.163 194.345 0.510137 -0.856305 0.0782687
-887.684 -500.982 65.103 0.587789 -0.730775 0.193611
-890.301 -501.569 89.2349 0.638625 -0.741081 0.0997726
-889.155 -503.319 30.4162 0.601503 -0.678374 0.287185
-890.361 -500.398 125.965 0.631125 -0.753347 0.0794086
-888.326 -503.982 9.00672 0.563473 -0.631928 0.421718
-888.908 -508.973 3.00315 0.0571852 -0.394532 0.858804
-888.759 -545.832 3.00315 0 6.10352e-08 1
-889.126 -566.572 3.00316 0 9.15532e-08 1
-887.265 -573.934 3.00316 0 6.32575e-08 1
-889.988 -583.976 3.00316 0 9.15532e-08 1
-889.558 -614.716 3.00316 0 7.22446e-08 1
-890.323 -654.947 3.00316 0 7.12187e-08 1
-888.759 -674.689 3.00316 0 6.10352e-08 1
-888.449 -692.972 3.00317 0 6.10352e-08 1
-890.169 -699.85 3.00317 0 9.15532e-08 1
-890.579 -726.01 3.00317 0 6.10352e-08 1
-887.384 -748.538 3.00317 0 8.01334e-08 1
-889.822 -774.975 3.00317 0 6.10352e-08 1
-889.425 -793.558 3.00317 0 6.56404e-08 1
-887.31 -830.376 3.00318 0 7.86182e-08 1
-889.143 -849.033 36.2147 -0.454214 0.433868 0.593075
-889.973 -852.116 28.988 -0.603708 0.589103 0.492856
-889.005 -852.126 52.4754 -0.647282 0.610279 0.356379
-889.21 -854.649 103.724 -0.701535 0.654848 0.156744
-890.06 -853.794 67.5649 -0.663416 0.635894 0.274101
-890.476 -854.623 80.1673 -0.692407 0.66307 0.158525
-890.133 -858.544 142.619 -0.73533 0.675625 0.048793
-890.001 -857.301 130.245 -0.727867 0.683673 0.0484775
-889.679 -859.441 160.632 -0.734685 0.674637 0.0575298
-889.916 -861.767 191.555 -0.703339 0.695041 0.103828
-889.6 -860.411 168.957 -0.718054 0.674934 0.115174
-890.356 -861.276 179.993 -0.714988 0.690987 0.0736343
-889.552 -862.048 198.844 -0.695408 0.696708 0.128
-888.262 -877.995 266.974 -0.383706 0.888335 0.229418
-890.165 -876.719 257.177 -0.420164 0.855391 0.26936
-887.292 -880.713 281.852 -0.271249 0.936872 0.203452
-889.76 -883.437 294.11 -0.511662 0.817568 0.247769
-888.408 -887.695 306.41 -0.726475 0.598467 0.24995
-887.976 -893.428 327.78 -0.690712 0.695684 0.17262
-888.273 -896.796 343.6 -0.658228 0.721297 0.160762
-886.838 -901.317 369.396 -0.737144 0.633423 0.224021
-888.411 -901.345 362.12 -0.611296 0.733135 0.214575
-887.335 -908.637 390.495 -0.102352 0.958953 0.242684
-889.774 -911.405 402.253 -0.0993075 0.941395 0.288911
-888.952 -931.524 438.717 -0.231253 0.560616 0.726827
-887.253 -942.676 444.664 -0.0426024 0.681194 0.729268
-889.706 -992.263 485.283 -0.0916007 0.371737 0.873207
-893.583 -268.712 314.922 0.360332 -0.14063 0.913318
-893.234 -284.672 313.737 0.172211 0.0664066 0.97427
-891.167 -291.683 313.702 0.359524 0.0825379 0.915884
-891.157 -324.132 328.64 0.857526 0.302674 0.412132
-892.423 -330.782 332.465 0.842573 0.3071 0.403935
-891.567 -349.341 348.501 0.888043 0.082877 0.44062
-893.202 -356.967 352.05 0.907492 0 0.420002
-892.529 -373.868 350.005 0.906883 -0.0683456 0.415381
-890.881 -380.273 345.474 0.895985 -0.054819 0.437442
-894.476 -404.49 332.835 0.708316 -0.492436 0.435571
-892.722 -414.861 314.881 0.510532 -0.702227 0.488215
-891.5 -418.792 307.138 0.660336 -0.467433 0.527687
-893.926 -424.897 311.272 0.90914 -0.107181 0.397939
-891.064 -425.443 304.483 0.916045 -0.0520076 0.397226
-894.363 -431.821 307.286 0.524247 -0.510655 0.636275
-891.582 -450.599 296.751 0.516601 -0.580348 0.551398
-892.783 -454.321 289.768 0.543994 -0.721758 0.42414
-892.236 -458.341 281.986 0.741283 -0.485019 0.419487
-892.099 -469.106 272.327 0.49476 -0.617405 0.552445
-893.095 -480.558 252.122 0.71931 -0.629552 0.292156
-890.639 -481.287 244.127 0.694092 -0.639308 0.325042
-892.382 -488.507 233.971 0.769553 -0.522763 0.363141
-891.56 -494.422 211.245 0.561282 -0.794779 0.172938
-892.747 -496.311 203.279 0.637975 -0.748088 0.10904
-892.544 -498.468 174.715 0.676022 -0.727798 0.0791728
-890.729 -501.067 107.613 0.648867 -0.758923 0.0475552
-891.373 -503.138 52.4146 0.665965 -0.742128 0.0725372
-891.748 -500.292 146.6 0.640596 -0.766181 0.0470811
-894.33 -502.019 136.542 0.639537 -0.766899 0.0493931
-891.922 -503.9 41.0777 0.663068 -0.74553 0.0605345
-892.697 -503.204 74.3026 0.655318 -0.752508 0.0576909
-893.314 -505.18 60.0952 0.454304 -0.726315 0.267468
-891.34 -507.192 16.4612 0.151869 -0.664074 0.641845
-891.589 -527.179 3.00315 0 6.10352e-08 1
-891.325 -558.77 3.00316 0 6.10352e-08 1
-893.264 -625.788 3.00316 0 6.10352e-08 1
-891.008 -646.534 3.00316 0 7.66782e-08 1
-891.366 -663.717 3.00316 0 8.88526e-08 1
-891.916 -709.406 3.00317 0 6.10352e-08 1
-891.389 -738.727 3.00317 0 6.10352e-08 1
-893.937 -752.418 3.00317 0 9.15523e-08 1
-891.53 -761.801 3.00317 0 6.1678e-08 1
-890.945 -785.534 3.00317 0 8.86025e-08 1
-893.695 -800 3.00317 0 9.15523e-08 1
-893.531 -815.167 3.00317 0 9.15523e-08 1
-891.789 -838.872 3.00318 0 6.86241e-08 1
-890.708 -853.86 58.9296 -0.650899 0.643792 0.267567
-891.035 -851.735 7.32336 -0.524649 0.589488 0.575704
-890.907 -857.857 121.171 -0.736898 0.674286 0.0457537
-891.035 -855.939 96.3557 -0.727519 0.684513 0.044417
-891.43 -857.735 110.562 -0.738012 0.672813 0.0492536
-894.531 -856.51 43.7972 -0.731424 0.678904 0.0617189
-892.66 -861.366 148.34 -0.700569 0.710602 0.055946
-894.327 -861.948 134.527 -0.639396 0.763413 0.0452424
-890.975 -864.519 216.448 -0.644964 0.742294 0.135801
-891.179 -863.298 206.493 -0.676326 0.731933 0.0664782
-894.525 -864.843 184.789 -0.612636 0.785795 0.0699285
-891.59 -866.599 223.749 -0.583404 0.771806 0.232917
-893.336 -867.956 231.025 -0.619022 0.747815 0.193446
-893.167 -880.961 273.989 -0.533064 0.801505 0.22552
-894.03 -884.483 282.584 -0.784473 0.57259 0.222727
-893.5 -892.655 305.544 -0.342822 0.896966 0.227804
-893.649 -895.164 317.687 -0.209913 0.945806 0.184719
-894.047 -905.541 374.4 -0.0381787 0.978959 0.198418
-894.047 -908.054 385.792 -0.10027 0.964052 0.224009
-891.754 -922.193 419.076 -0.22753 0.697262 0.66108
-891.844 -926.232 426.67 -0.249341 0.846623 0.441076
-892.71 -939.236 441.029 -0.170993 0.691838 0.686034
-893.943 -949.181 450.774 -0.211758 0.598773 0.767609
-893.691 -955.87 456.637 -0.473007 0.610771 0.616353
-891.78 -972.739 470.353 -0.0159045 0.730823 0.681696
-891.356 -982.092 477.641 0 0.277691 0.960379
-898.173 -234.769 335.92 0.13351 -0.606431 0.783096
-895.513 -256.316 321.666 0.113276 -0.593443 0.791148
-897.008 -262.677 317.462 0.321741 -0.318747 0.886597
-896.673 -294.215 320.162 0.758522 0.155929 0.622046
-894.68 -306.858 317.68 0.774268 0.0582823 0.628595
-895.04 -314.001 320.553 0.791744 0.358058 0.472564
-896.077 -318.111 328.021 0.733859 0.572112 0.360318
-896.175 -321.841 335.598 0.745019 0.515521 0.375649
-898.308 -324.595 344.468 0.685494 0.325641 0.641261
-895.588 -334.022 341.877 0.668041 0.45594 0.538002
-897.214 -338.839 347.361 0.474967 0.552764 0.675624
-894.736 -349.461 355.388 0.873482 0.14262 0.439195
-896.338 -357.802 358.933 0.841295 0.00736496 0.521561
-898.411 -363.117 363.519 0.897383 0.0246909 0.439954
-894.601 -363.681 355.09 0.90957 0.00012294 0.415526
-897.195 -370.612 360.782 0.825805 -0.0893084 0.541606
-895.979 -376.484 357.085 0.827681 -0.154377 0.516034
-896.181 -391.39 342.193 0.746945 -0.364384 0.49428
-894.598 -396.803 336.257 0.895644 -0.0995989 0.416154
-897.224 -401.338 342.069 0.780879 -0.32214 0.478854
-898.433 -410.138 324.586 0.525498 -0.654934 0.542485
-898.335 -417.593 321.935 0.913954 -0.0737222 0.393145
-895.569 -447.666 302.143 0.328232 -0.298585 0.867291
-894.817 -464.397 279.437 0.376181 -0.731872 0.555964
-898.243 -479.683 266.968 0.714181 -0.469896 0.506434
-895.988 -480.059 260.431 0.721632 -0.562428 0.369723
-895.701 -489.214 240.837 0.670601 -0.639108 0.345561
-898.346 -489.906 248.402 0.590021 -0.71897 0.366193
-895.428 -494.738 224.013 0.688577 -0.681624 0.213896
-896.548 -500.244 196.694 0.585255 -0.803732 0.0860931
-895.167 -501.528 156.057 0.621422 -0.779539 0.0588602
-897.099 -501.82 164.36 0.587394 -0.802438 0.0750936
-897.852 -501.506 184.418 0.57979 -0.807351 0.0825423
-896.482 -505.79 92.235 0.596046 -0.668726 0.319496
-896.626 -505.473 102.457 0.604438 -0.684494 0.272191
-897.542 -506.299 83.3354 0.632179 -0.709061 0.17361
-897.955 -505.475 116.996 0.640992 -0.731486 0.112444
-897.714 -508.773 27.1962 0.556215 -0.648212 0.247463
-895.734 -519.527 3.00315 0 9.15523e-08 1
-895.555 -533.275 3.00315 0 7.68581e-08 1
-897.692 -567.101 3.00316 0 9.15532e-08 1
-894.98 -590.938 3.00316 0 6.10352e-08 1
-897.803 -604.559 3.00316 0 9.15523e-08 1
-895.826 -636.594 3.00316 0 9.15523e-08 1
-898.055 -648.908 3.00316 0 9.15523e-08 1
-898.402 -660.468 3.00316 0 6.34704e-08 1
-896.702 -668.466 3.00316 0 8.76648e-08 1
-896.54 -690.183 3.00317 0 7.05912e-08 1
-896.929 -721.909 3.00317 0 6.6876e-08 1
-897.308 -776.677 3.00317 0 6.10352e-08 1
-896.614 -790.825 3.00317 0 6.10352e-08 1
-897.12 -851.155 3.00318 -0.155295 0.368377 0.875513
-894.557 -853.727 17.696 -0.425752 0.66773 0.370605
-897.234 -853.805 11.1703 -0.482928 0.443707 0.599698
-895.759 -856.267 32.1297 -0.674547 0.616421 0.256453
-895.19 -857.373 51.1527 -0.695815 0.651255 0.160068
-894.816 -861.978 127.043 -0.631117 0.770454 0.0476814
-895.975 -861.289 93.7343 -0.644603 0.758244 0.0629112
-896.008 -859.998 68.8571 -0.685815 0.722318 0.0633037
-898.092 -859.383 20.7047 -0.690037 0.717816 0.0907072
-895.6 -860.079 77.5496 -0.686236 0.722112 0.0579396
-898.133 -863.2 110.284 -0.608176 0.79265 0.0384686
-898.339 -862.273 85.4304 -0.628021 0.774555 0.0519893
-897.564 -863.339 120.281 -0.604927 0.79519 0.0392704
-896.053 -865.451 177.013 -0.627463 0.773565 0.0768115
-896.083 -866.713 200.858 -0.617185 0.780304 0.0835846
-895.949 -866.258 193.512 -0.625534 0.774051 0.083969
-894.616 -874.238 244.135 -0.140462 0.888589 0.435526
-896.907 -878.069 253.447 -0.481292 0.782873 0.343797
-895.536 -879.794 261.615 -0.566716 0.758901 0.256254
-896.945 -883.598 267.337 -0.709319 0.655076 0.247758
-894.775 -890.366 293.374 -0.36279 0.889383 0.275476
-897.654 -889.247 286.398 -0.245519 0.930554 0.21752
-895.716 -897.766 330.869 -0.0765667 0.979622 0.178737
-896.638 -903.85 364.834 -0.0857267 0.976897 0.18774
-895.128 -915.573 407.939 -0.662138 0.644315 0.366343
-897.132 -914.148 400.764 -0.708057 0.636197 0.295417
-897.038 -920.655 413.582 -0.472204 0.739087 0.440545
-897.084 -943.713 445.773 -0.2598 0.675148 0.661607
-894.838 -961.363 461.59 -0.582184 0.534859 0.606161
-895.821 -988.613 480.86 -0.030093 0.704477 0.706581
-898.935 -243.4 328.365 0.240356 -0.482427 0.828533
-900.704 -250.31 327.021 0.470419 -0.292696 0.810886
-901.282 -268.711 319.821 0.627385 -0.00502245 0.777426
-900.924 -278.057 318.582 0.590666 -0.215977 0.769322
-898.728 -287.273 317.421 0.56684 0.432108 0.674946
-901.303 -293.611 326.248 0.773095 0.215302 0.588788
-899.062 -300.178 323.31 0.804781 0.011605 0.593258
-899.049 -307.593 324.124 0.857293 0.17286 0.481627
-901.567 -319.311 340.187 0.615808 0.603711 0.482519
-902.08 -332.674 347.626 0.42368 0.379848 0.810526
-898.898 -342.597 354.687 0.569407 0.669943 0.462719
-901.219 -345.263 361.847 0.555974 0.556482 0.577363
-902.093 -360.991 370.063 0.774968 0.307788 0.496299
-901.467 -368.547 367.245 0.648904 -0.396459 0.61206
-901.651 -380.209 361.415 0.328005 -0.595659 0.699136
-900.66 -383.772 354.887 0.520707 -0.668094 0.523931
-899.039 -387.275 347.684 0.610157 -0.494647 0.572186
-901.973 -391.951 352.546 0.90138 -0.0502263 0.425415
-901.213 -409.143 332.001 0.674076 -0.534205 0.441435
-899.133 -425.209 323.053 0.691793 -0.494142 0.518282
-899.578 -440.807 305.058 0.632213 -0.16387 0.703925
-900.003 -463.746 284.976 0.518916 -0.725486 0.43137
-898.693 -468.689 274.762 0.470011 -0.669646 0.563549
-900.602 -495.23 241.458 0.60438 -0.697964 0.347995
-899.538 -499.929 217.386 0.581069 -0.796565 0.131877
-901.429 -502.619 208.298 0.603091 -0.782697 0.0986336
-900.568 -505.62 129.501 0.584217 -0.803368 0.059608
-898.572 -503.986 176.508 0.643437 -0.763698 0.0422369
-901.995 -503.976 199.144 0.524912 -0.846643 0.0719094
-899.551 -504.871 150.39 0.614912 -0.782701 0.050756
-899.423 -507.592 63.7513 0.656413 -0.751813 0.0411226
-898.59 -508.131 36.2787 0.616991 -0.736193 0.0972229
-901.834 -509.676 70.8515 0.534062 -0.687011 0.318518
-901.722 -508.437 112.014 0.54243 -0.752492 0.143268
-899.862 -526.832 3.00315 0 6.10352e-08 1
-902.108 -539.653 3.00315 0 8.69389e-08 1
-899.021 -554.457 3.00315 0 9.15532e-08 1
-898.864 -613.568 3.00316 0 6.32762e-08 1
-899.006 -681.582 3.00316 0 7.58395e-08 1
-900.248 -710.01 3.00317 0 6.10352e-08 1
-898.937 -735.326 3.00317 0 8.4123e-08 1
-900.799 -744.809 3.00317 0 6.10352e-08 1
-899.167 -757.699 3.00317 0 6.19186e-08 1
-899.632 -769.149 3.00317 0 9.15523e-08 1
-901.528 -801.705 3.00317 0 8.43391e-08 1
-900.992 -814.767 3.00317 0 9.15523e-08 1
-898.767 -827.39 3.00318 0 6.10352e-08 1
-900.597 -836.013 3.00318 0 9.09662e-08 1
-901.298 -860.933 34.1147 -0.54181 0.634646 0.430352
-900.986 -861.073 41.5794 -0.54307 0.64642 0.406171
-900.799 -864.083 73.4937 -0.642875 0.761485 0.0510007
-898.714 -865.24 140.535 -0.589512 0.805333 0.0449229
-901.207 -863.393 51.4011 -0.658871 0.748987 0.0505539
-898.529 -866.325 165.525 -0.572984 0.817546 0.0478435
-900.031 -864.687 101.642 -0.621077 0.779149 0.0493851
-899.816 -866.758 155.787 -0.550416 0.830115 0.0468088
-899.511 -866.367 147.846 -0.579926 0.809856 0.0504173
-900.43 -868.61 181.635 -0.373435 0.884408 0.165108
-899.727 -870.18 216.124 -0.285351 0.887727 0.292045
-901.785 -869.513 197.726 -0.468913 0.844399 0.178757
-900.32 -870.659 227.536 -0.355697 0.858618 0.29536
-901.722 -868.514 172.908 -0.436808 0.870965 0.12761
-901.929 -869.189 189.515 -0.474564 0.848243 0.155918
-899.025 -870.893 234.482 -0.235438 0.890463 0.356653
-899.872 -869.827 207.211 -0.290349 0.892244 0.26767
-901.136 -883.727 258.521 -0.346763 0.869991 0.324482
-900.341 -892.214 300.535 -0.0144294 0.982577 0.183977
-900.603 -896.822 325.688 -0.00150848 0.983422 0.181179
-899.965 -899.3 339.373 -0.0338923 0.98062 0.185072
-900.333 -906.059 370.639 -0.574349 0.755717 0.212567
-899.078 -907.447 379.457 -0.53787 0.787342 0.239832
-898.885 -912.627 393.026 -0.722936 0.628339 0.273119
-901.49 -920.12 404.452 -0.660552 0.674395 0.312298
-900.907 -927.724 416.787 -0.679978 0.551476 0.465034
-900.384 -935.461 430.15 -0.461998 0.760287 0.455632
-901.044 -940.385 437.214 -0.599513 0.644268 0.438318
-900.077 -951.911 448.743 -0.477254 0.403928 0.774319
-899.454 -967.923 463.997 -0.313125 0.676105 0.66217
-898.842 -981.335 477.352 -0.294612 0.295366 0.89825
-905.865 -244.448 332.694 0.532027 -0.214684 0.812703
-902.666 -257.33 323.684 0.525635 -0.496524 0.689826
-904.212 -283.903 320.918 0.731411 0.250515 0.608958
-902.571 -310.019 333.684 0.894631 0.228248 0.383261
-905.613 -311.839 342.111 0.901556 0.181641 0.38629
-903.91 -337.182 353.829 0.599185 0.640881 0.469471
-905.691 -339.587 360.717 0.567456 0.598278 0.559816
-906.122 -366.79 373.678 0.43092 -0.715418 0.485994
-905.581 -374.504 365.037 0.429176 -0.208227 0.865308
-903.286 -400.079 349.772 0.464786 -0.665329 0.52451
-903.585 -416.425 335.557 0.916545 -0.0967539 0.379993
-902.826 -421.272 330.347 0.751891 -0.450973 0.473998
-903.454 -432.705 315.821 0.837349 -0.307754 0.442066
-903.296 -440.785 314.169 0.895084 -0.176145 0.381594
-902.566 -449.921 302.65 0.228039 -0.467812 0.834896
-902.61 -460.173 296.913 0.503913 -0.658904 0.50923
-904.023 -469.808 285.321 0.764181 -0.52719 0.364062
-903.251 -474.462 277.121 0.721838 -0.505934 0.457674
-903.159 -484.171 262.736 0.147367 -0.891164 0.425257
-902.583 -487.413 255.59 0.131026 -0.880356 0.454222
-904.983 -491.712 250.294 0.619169 -0.506293 0.551155
-905.411 -503.906 227.299 0.614931 -0.773253 0.134984
-904.937 -507.278 179.842 0.641959 -0.763635 0.0569613
-904.741 -505.628 192.635 0.642336 -0.757644 0.099311
-904.42 -507.151 172.718 0.64191 -0.76336 0.0579064
-903.018 -509.278 94.9814 0.613108 -0.692587 0.246006
-904.299 -508.602 138.143 0.626415 -0.726113 0.154188
-902.359 -511.699 3.90353 0.566035 -0.570988 0.59317
-903.759 -511.034 54.3184 0.603947 -0.631296 0.39404
-906.158 -509.258 156.923 0.659881 -0.743063 0.0551048
-906.149 -510.7 120.002 0.680515 -0.724122 0.0491885
-902.756 -512.485 12.8799 0.525267 -0.529996 0.598333
-903.729 -513.953 36.1665 0.454164 -0.460147 0.57644
-903.435 -513.384 29.1196 0.484561 -0.490304 0.572911
-904.163 -512.538 46.546 0.569479 -0.57833 0.39858
-903.115 -512.574 21.4622 0.531192 -0.536888 0.553524
-904.488 -546.734 3.00315 0 6.10352e-08 1
-906.11 -565.989 3.00316 0 8.82946e-08 1
-903.705 -574.267 3.00316 0 6.10352e-08 1
-902.37 -581.617 3.00316 0 8.8319e-08 1
-903.514 -591.824 3.00316 0 6.10352e-08 1
-903.248 -600.158 3.00316 0 8.05765e-08 1
-902.792 -619.629 3.00316 0 9.15523e-08 1
-902.549 -674.527 3.00316 0 6.10352e-08 1
-905.127 -688.684 3.00317 0 8.23067e-08 1
-902.523 -702.292 3.00317 0 9.15532e-08 1
-903.498 -789.366 3.00317 0 6.10352e-08 1
-906.244 -809.095 3.00317 0 6.49491e-08 1
-906.037 -819.92 3.00317 0 6.40983e-08 1
-904.2 -854.596 3.00318 -0.108317 0.108316 0.977144
-905.183 -860.534 8.98856 -0.372709 0.386867 0.688909
-902.458 -863.348 26.24 -0.67332 0.727484 0.0722696
-902.871 -865.307 81.2959 -0.546865 0.788999 0.122013
-904.052 -864.764 58.7656 -0.529337 0.719108 0.299764
-903.293 -867.144 122.719 -0.486293 0.868693 0.039815
-906.224 -866.896 69.3881 -0.557129 0.80861 0.0778867
-904.389 -866.643 95.3333 -0.508844 0.819323 0.116849
-903.779 -867.933 133.986 -0.518207 0.845879 0.0729965
-904.561 -867.403 107.779 -0.524003 0.847299 0.044642
-905.699 -870.793 212.199 -0.655955 0.74517 0.0824676
-906.205 -871.09 221.438 -0.6804 0.729921 0.0605681
-904.705 -875.93 240.107 -0.375714 0.832409 0.375393
-902.952 -886.698 270.953 -0.0979764 0.973455 0.202112
-905.084 -893.828 309.276 -0.183541 0.959431 0.176101
-902.386 -895.208 316.824 -0.00479043 0.982746 0.182588
-904.528 -905.125 352.403 -0.823427 0.510759 0.228793
-906.138 -902.728 342.784 -0.853085 0.437792 0.281399
-905.186 -909.92 361.566 -0.741706 0.635763 0.193358
-903.889 -913.23 377.62 -0.710851 0.667351 0.218582
-905.265 -912.097 368.593 -0.701437 0.682351 0.202685
-902.913 -915.075 386.922 -0.702762 0.670193 0.234848
-903.892 -919.774 397.368 -0.709691 0.650689 0.265444
-902.36 -933.558 423.323 -0.47643 0.744195 0.468132
-905.644 -941.822 430.226 -0.658059 0.666572 0.343854
-903.647 -945.712 441.994 -0.577305 0.637344 0.492955
-904.33 -959.968 454.723 -0.181983 0.674569 0.70737
-905.29 -966.446 459.033 -0.590039 0.362834 0.707677
-905.518 -973.403 463.453 -0.676171 0.521149 0.519063
-903.827 -978.14 470.942 -0.609793 0.512443 0.589449
-904.295 -987.117 477.975 -0.379005 0.544056 0.731305
-907.357 -253.214 330.567 0.33509 -0.432186 0.811949
-910.022 -263.345 327.567 0.6552 -0.0691274 0.749939
-906.859 -288.983 329.768 0.68363 0.535127 0.495428
-908.02 -301.042 336.545 0.749318 0.379422 0.53802
-907.604 -321.133 347.393 0.52963 0.19543 0.807576
-907.839 -357.468 372.837 0.615088 0.604414 0.487195
-909.914 -374.505 370.763 0.843444 -0.0708662 0.505944
-907.221 -383.145 364.626 0.835943 -0.175899 0.517193
-906.597 -392.302 362.531 0.846793 -0.163382 0.471067
-908.233 -400.138 354.865 0.629288 -0.630974 0.435163
-906.277 -406.672 344.64 0.841667 -0.270853 0.462703
-908.577 -414.178 346.902 0.873854 -0.0156578 0.478347
-908.398 -426.328 328.869 0.740753 -0.457906 0.440451
-907.776 -433.03 325.872 0.924312 -0.0611307 0.373988
-909.136 -443.14 320.759 0.223134 -0.837192 0.470525
-908.886 -449.132 308 0.638798 -0.542466 0.5088
-910.061 -455.604 305.364 0.651896 -0.323509 0.674207
-906.73 -466.731 296.775 0.735836 -0.49492 0.437063
-907.651 -475.478 282.914 0.573773 -0.719323 0.384496
-908.627 -481.044 271.642 0.35439 -0.839538 0.400991
-906.499 -500.532 243.158 0.573751 -0.738791 0.340126
-907.471 -506.197 213.877 0.630103 -0.74382 0.162423
-909.7 -505.664 233.467 0.637839 -0.709982 0.265244
-907.788 -507.975 206.716 0.664438 -0.739102 0.0894947
-907.572 -509.514 165.453 0.683965 -0.722631 0.0759219
-908.69 -508.667 197.875 0.686244 -0.716158 0.110221
-909.747 -510.938 190.019 0.680818 -0.728068 0.0639936
-906.874 -512.1 102.571 0.682002 -0.703801 0.0871262
-907.84 -511.857 131.849 0.684253 -0.718482 0.0552634
-908.211 -514.292 82.4275 0.630532 -0.642238 0.317624
-909.835 -517.026 63.3137 0.652661 -0.614178 0.258422
-909.779 -519.084 13.7614 0.560492 -0.551843 0.562577
-907.909 -517.973 40.51 0.473955 -0.450376 0.55215
-907.29 -518.713 22.7007 0.397929 -0.385441 0.709863
-908.976 -518.351 31.4207 0.534321 -0.515549 0.520764
-909.147 -519.542 3.00315 0.495294 -0.493504 0.678933
-907.563 -528.653 3.00315 0 6.10352e-08 1
-906.588 -555.112 3.00316 0 8.82389e-08 1
-909.732 -604.41 3.00316 0 9.15523e-08 1
-908.213 -631.313 3.00316 0 7.98411e-08 1
-909.735 -638.964 3.00316 0 7.40125e-08 1
-909.727 -651.832 3.00316 0 9.15523e-08 1
-906.347 -661.335 3.00316 0 7.02452e-08 1
-909.818 -669.833 3.00316 0 7.69883e-08 1
-909.565 -677.664 3.00316 0 6.10352e-08 1
-906.805 -696.072 3.00317 0 6.69682e-08 1
-907.702 -720.374 3.00317 0 7.88671e-08 1
-909.176 -729.74 3.00317 0 8.58558e-08 1
-906.741 -740.628 3.00317 0 6.10352e-08 1
-908.063 -756.849 3.00317 0 6.8562e-08 1
-906.864 -768.121 3.00317 0 9.15523e-08 1
-909.085 -780.491 3.00317 0 8.56207e-08 1
-909.932 -801.531 3.00317 0 8.56964e-08 1
-907.27 -830.2 3.00318 0 7.72443e-08 1
-908.534 -864.353 22.5547 -0.393659 0.473489 0.6338
-906.54 -863.962 15.4285 -0.511846 0.59369 0.549844
-908.849 -867.682 45.4751 -0.57657 0.644125 0.412935
-906.778 -869.43 149.085 -0.630328 0.736285 0.124198
-908.384 -871.089 171.545 -0.673283 0.73768 0.0411672
-909.055 -868.936 85.6624 -0.612826 0.644199 0.351772
-909.508 -869.72 100.725 -0.632098 0.68112 0.23271
-907.242 -872.568 204.145 -0.531826 0.799142 0.145053
-907.6 -871.858 192.984 -0.600785 0.768853 0.0962931
-908.097 -871.302 179.202 -0.653866 0.746051 0.0563227
-909.584 -872.084 157.19 -0.613185 0.765281 0.0822448
-910.124 -875.204 235.01 -0.670774 0.716884 0.178467
-909.66 -881.495 244.999 -0.519113 0.77209 0.338093
-907.985 -883.334 252.349 -0.366073 0.863475 0.283694
-908.203 -885.221 260.564 -0.37242 0.873225 0.23661
-907.091 -888.18 276.947 -0.275635 0.934485 0.186048
-908.841 -892.027 292.12 -0.463135 0.856392 0.170697
-908.214 -898.112 325.065 -0.637345 0.719449 0.209155
-909.906 -894.891 302.525 -0.623592 0.762368 0.163347
-907.616 -900.554 333.068 -0.795053 0.528562 0.242778
-908.754 -916.979 373.877 -0.721052 0.660101 0.209614
-907.982 -918.729 381.923 -0.721782 0.655624 0.220454
-906.488 -925.517 405.042 -0.627762 0.717685 0.299907
-906.262 -928.092 411.951 -0.549917 0.728961 0.395954
-908.5 -935.257 416.482 -0.849973 0.298842 0.427028
-907.273 -940.118 423.736 -0.722414 0.568009 0.350625
-908.434 -952.631 445.739 -0.321833 0.718574 0.60482
-910.117 -978.866 463.304 -0.690975 0.572553 0.438932
-907.263 -994.745 447.141 -0.28576 -0.825629 0.236052
-906.473 -995.746 436.254 -0.151399 -0.943284 0.124982
-907.494 -993.659 459.721 -0.450933 -0.613248 0.38986
-907.621 -993.019 467.142 -0.548516 -0.486922 0.480947
-913.603 -246.911 332.401 -0.106008 -0.11254 0.985142
-910.298 -274.731 327.856 0.689265 0.0167243 0.723479
-911.561 -288.141 335.475 0.705454 0.478049 0.52188
-912.292 -325.879 352.194 0.649351 0.228578 0.721634
-910.48 -334.829 357.377 0.453763 0.698381 0.53709
-912.456 -338.702 363.69 0.205941 0.632752 0.740531
-911.534 -348.576 370.137 0.579078 0.411786 0.679053
-914.037 -352.8 376.82 0.557008 0.523605 0.642559
-911.704 -362.699 381.921 0.14807 -0.0781143 0.964732
-911.039 -386.784 369.629 0.822458 -0.120249 0.551376
-910.54 -394.439 368.834 0.772892 -0.355758 0.521058
-913.106 -403.457 362.951 0.825317 -0.355707 0.43461
-913.97 -409.662 356.272 0.789846 -0.350298 0.496279
-913.12 -416.614 354.184 0.802874 -0.247377 0.511974
-911.363 -421.727 344.065 0.656008 -0.665317 0.343939
-911.056 -424.815 336.597 0.801161 -0.456203 0.371172
-913.889 -433.053 342.037 0.746977 -0.408388 0.492598
-912.316 -439.107 329.586 0.253941 -0.840472 0.442312
-913.139 -447.642 317.189 0.670158 -0.469764 0.564993
-913.85 -462.107 306.878 0.60429 -0.178918 0.763696
-910.937 -474.577 290.297 0.557594 -0.733135 0.372338
-912.965 -486.998 271.347 0.820868 -0.396784 0.396094
-912.846 -491.54 265.043 0.618983 -0.641231 0.387631
-910.464 -494.039 256.629 0.618548 -0.601095 0.456386
-913.092 -499.318 250.906 0.283377 -0.804504 0.514019
-911.019 -514.247 137.562 0.730482 -0.67732 0.0594344
-910.926 -513.765 148.422 0.721197 -0.686957 0.0584992
-913.273 -511.973 211.289 0.737638 -0.658429 0.135283
-912.888 -514.145 180.943 0.730339 -0.674142 0.0881825
-913.581 -513.478 203.371 0.732329 -0.668676 0.110811
-911.034 -514.937 124.837 0.736412 -0.672383 0.0531006
-912.55 -513.918 172.158 0.735719 -0.667682 0.0913161
-912.014 -513.815 157.251 0.741278 -0.661706 0.0896785
-910.745 -515.902 107.219 0.719004 -0.673577 0.0735005
-911.904 -517.608 99.2681 0.63647 -0.634494 0.331098
-912.387 -518.521 91.0186 0.650366 -0.642999 0.279862
-913.358 -518.024 130.699 0.685803 -0.676689 0.142292
-911.978 -520.644 54.9277 0.559231 -0.547545 0.420853
-912.721 -519.997 76.1113 0.633865 -0.617715 0.260242
-911.731 -521.654 47.8948 0.477851 -0.468138 0.538235
-910.764 -535.524 3.00315 0 9.15532e-08 1
-911.786 -549.673 3.00315 0 8.28961e-08 1
-912.35 -570.943 3.00316 0 8.66283e-08 1
-911.896 -585.024 3.00316 0 9.15532e-08 1
-912.902 -611.949 3.00316 0 6.10352e-08 1
-913.931 -700.354 3.00317 0 9.15532e-08 1
-910.805 -706.697 3.00317 0 6.3646e-08 1
-912.756 -736.958 3.00317 0 7.13723e-08 1
-911.455 -748.543 3.00317 0 8.01694e-08 1
-911.589 -789.901 3.00317 0 6.10352e-08 1
-913.343 -840.872 3.00318 0 6.10352e-08 1
-913.417 -867.618 17.0395 -0.1569 0.64247 0.679471
-911.54 -869.363 73.9718 -0.443375 0.690162 0.340524
-911.028 -868.225 36.8318 -0.478133 0.63101 0.485256
-910.197 -867.388 9.55687 -0.56169 0.580228 0.571547
-911.24 -868.862 57.6202 -0.468229 0.662911 0.400953
-910.726 -870.721 112.412 -0.610712 0.732492 0.0995355
-911.393 -872.253 124.569 -0.682003 0.723703 0.0851323
-910.539 -871.883 140.096 -0.67254 0.735286 0.0594221
-910.406 -874.991 227.801 -0.676192 0.718845 0.157132
-913.982 -874.491 117.935 -0.651641 0.756555 0.0375343
-912.282 -878.306 221.295 -0.634543 0.714238 0.244238
-912.766 -877.767 206.331 -0.643134 0.720985 0.196157
-914.042 -876.693 176.159 -0.671887 0.731814 0.0799444
-913.361 -877.203 190.587 -0.655431 0.727292 0.140079
-910.685 -887.937 266.518 -0.510393 0.836854 0.192458
-910.27 -891.352 283.92 -0.568728 0.804175 0.168628
-913.677 -897.475 295.691 -0.610828 0.760722 0.200023
-912.596 -903.134 318.784 -0.641887 0.702007 0.23884
-912.148 -905.315 325.923 -0.591692 0.737576 0.265717
-911.841 -909.625 339.614 -0.556211 0.780598 0.260321
-912.228 -918.138 364.908 -0.620843 0.740036 0.221074
-910.297 -924.633 392.708 -0.63153 0.736729 0.233945
-913.185 -928.922 399.621 -0.669901 0.67085 0.292474
-913.615 -944.501 423.144 -0.521479 0.795401 0.308002
-913.75 -948.96 434.359 -0.535672 0.770559 0.343965
-910.317 -965.512 453.075 -0.790306 0.0991342 0.602849
-913.512 -977 455.03 -0.710482 0.523611 0.468917
-913.431 -984.585 466.67 -0.698973 0.529627 0.472835
-910.246 -988.631 473.752 -0.737682 0.144425 0.608412
-912.928 -995.812 454.666 0.541836 -0.518729 0.496715
-917.647 -253.917 333.686 0.440064 -0.105253 0.890934
-916.991 -262.368 333.175 0.556397 -0.00205774 0.829877
-915.28 -269.159 332.104 0.622056 0.0418009 0.779145
-916.39 -281.152 336.408 0.748675 0.282013 0.599046
-917.507 -293.798 345.979 0.682709 0.217576 0.692872
-917.511 -343.316 368.58 0.0786702 0.706415 0.698897
-915.171 -374.86 380.179 0.608424 0.0870911 0.748196
-914.503 -381.99 377.745 0.656195 -0.366631 0.630217
-915.53 -399.757 368.565 0.625873 -0.453285 0.589064
-915.675 -422.881 350.453 0.732172 -0.534385 0.390422
-916.578 -442.741 324.694 0.608592 -0.576699 0.527035
-916.392 -455.092 313.046 0.574314 -0.520603 0.618919
-914.877 -469.429 303.78 0.429717 -0.589126 0.661926
-916.947 -474.237 298.469 0.298892 -0.76179 0.53317
-914.817 -483.473 278.021 0.846446 -0.331814 0.396819
-914.324 -505.338 244.296 0.405247 -0.73782 0.524578
-917.106 -508.699 238.203 0.24466 -0.804564 0.436617
-915.861 -519.418 161.029 0.715965 -0.694277 0.0567736
-916.934 -517.413 191.717 0.751943 -0.633537 0.144157
-914.386 -521.444 68.1814 0.642556 -0.633559 0.31112
-916.391 -520.448 148.44 0.676291 -0.669032 0.194372
-914.918 -520.355 112.994 0.68395 -0.669643 0.159515
-916.904 -521.64 124.183 0.636774 -0.693885 0.209408
-917.852 -519.831 203.193 0.698128 -0.702312 0.0960323
-915.085 -522.965 41.0373 0.58548 -0.618456 0.455803
-915.767 -522.82 60.9968 0.593826 -0.656459 0.358667
-917.002 -522.606 95.5344 0.607415 -0.726499 0.182412
-914.462 -525.446 11.9668 0.424562 -0.448579 0.702284
-916.694 -526.055 31.9515 0.476872 -0.55599 0.51847
-916.379 -578.557 3.00316 0 6.44073e-08 1
-916.212 -596.941 3.00316 0 6.10352e-08 1
-916.405 -620.274 3.00316 0 9.15523e-08 1
-917.073 -632.6 3.00316 0 8.98955e-08 1
-916.428 -647.187 3.00316 0 8.17818e-08 1
-916.769 -673.531 3.00316 0 6.10352e-08 1
-916.255 -681.082 3.00316 0 7.19292e-08 1
-915.726 -755.5 3.00317 0 7.91048e-08 1
-917.53 -768.313 3.00317 0 9.15523e-08 1
-915.287 -776.318 3.00317 0 6.10352e-08 1
-916.536 -784.526 3.00317 0 9.15523e-08 1
-916.507 -805.853 3.00317 0 6.10352e-08 1
-917.549 -812.924 3.00317 0 9.15523e-08 1
-916.527 -820.542 3.00318 0 6.10352e-08 1
-917.103 -827.49 3.00318 0 6.10352e-08 1
-914.823 -848.267 3.00318 0 9.15532e-08 1
-917.668 -855.753 3.00318 0 6.10352e-08 1
-914.257 -862.101 3.00318 0 8.23338e-08 1
-915.526 -871.607 25.3926 -0.60918 0.662764 0.295959
-914.573 -873.351 80.2613 -0.638495 0.722438 0.127648
-915.685 -873.099 69.5272 -0.576141 0.680442 0.299086
-915.928 -871.163 10.9585 -0.592197 0.642101 0.362917
-917.126 -874.16 56.4756 -0.627738 0.703964 0.176888
-914.653 -876.637 162.149 -0.677429 0.727521 0.0797778
-916.701 -876.231 108.011 -0.690252 0.717484 0.0774411
-916.779 -877.194 125.966 -0.693126 0.715151 0.0724516
-915.539 -881.09 196.518 -0.655654 0.719812 0.186186
-915.96 -879.893 184.225 -0.680125 0.712723 0.127619
-915.58 -881.951 213.423 -0.6307 0.736782 0.210454
-914.66 -882.469 228.096 -0.627244 0.728016 0.26225
-915.499 -886.014 247.192 -0.416902 0.869379 0.222306
-916.081 -889.842 260.819 -0.309676 0.90501 0.230844
-916.034 -894.572 279.213 -0.350147 0.885512 0.226168
-914.6 -901.487 307.612 -0.503027 0.821202 0.230585
-914.119 -916.294 351.847 -0.548147 0.793684 0.254771
-917.813 -915.303 344.6 -0.19858 0.913631 0.342643
-916.867 -921.966 369.559 -0.219507 0.926532 0.262278
-915.649 -924.272 379.091 -0.353116 0.881186 0.250007
-916.571 -929.162 391.89 -0.726163 0.60874 0.285194
-914.156 -934.938 404.921 -0.835984 0.322227 0.423301
