ply
format ascii 1.0
comment Created by Open3D
element vertex 987
property double x
property double y
property double z
property double nx
property double ny
property double nz
end_header
-1.30726 1.65515 2.5 0 0 1
-1.30896 1.7538 2.5 0 0 1
-1.31067 1.89298 2.5 0 0 1
-1.29834 -1.88163 0 0 0 1
-1.30526 -1.73425 0 0 0 1
-1.29716 -1.50943 0 0 0 1
-1.28037 -1.40828 0 0 0 1
-1.29707 -1.15968 0 0 0 1
-1.27895 -0.860472 0.00962954 0.151053 -0.392561 0.905283
-1.30402 -0.768993 0.0561123 0.0671702 -0.161627 0.981955
-1.27647 0.207995 1.02244 0.248839 -0.882376 0.396963
-1.29325 0.336681 1.26487 0.241388 -0.683408 0.667756
-1.2783 0.575358 1.72852 0.209841 -0.893623 0.392227
-1.30591 0.825646 2.24845 0.214168 -0.69904 0.670825
-1.28647 1.14477 2.42438 0.356567 -0.352486 0.811619
-1.30233 1.44131 2.5 0 0 1
-1.27021 -0.955311 0 0 0 1
-1.26121 -0.364498 0.31695 0.078745 -0.465927 0.867347
-1.24561 -0.255184 0.413549 0.106969 -0.595826 0.794462
-1.24972 0.128082 0.826545 0.0748149 -0.907891 0.390198
-1.25847 0.469299 1.44566 0.251212 -0.891052 0.373933
-1.24764 0.506559 1.54085 0.212445 -0.90868 0.354471
-1.21992 -1.81438 0 0 0 1
-1.21262 -0.522128 0.191215 -0.0641501 -0.713562 0.696118
-1.24409 -0.146025 0.54591 -0.391056 -0.62905 0.668103
-1.21723 0.0710142 0.729084 -0.521115 -0.688926 0.477816
-1.24096 0.269829 1.13685 0.317964 -0.827182 0.460567
-1.23629 0.549014 1.63716 0.186384 -0.916261 0.352766
-1.23916 0.61965 1.82994 0.0876982 -0.92949 0.355292
-1.22 0.739997 2.05813 0.367055 -0.787021 0.495499
-1.21929 0.801685 2.14071 0.423124 -0.737889 0.525632
-1.22559 0.966504 2.35524 0.350616 -0.677333 0.619071
-1.24297 1.05171 2.40015 0.267845 0.275073 0.914577
-1.23995 1.23658 2.44861 0.0481365 -0.495963 0.855434
-1.21891 1.71478 2.5 0 0 1
-1.22984 1.84277 2.5 0 0 1
-1.1857 -1.69415 0 0 0 1
-1.19608 -1.58329 0 0 0 1
-1.19249 -1.47226 0 0 0 1
-1.18608 -1.37019 0 0 0 1
-1.19038 -1.24788 0 0 0 1
-1.19367 -1.02873 0 0 0 1
-1.1838 -0.913883 0 -0.276734 -0.157947 0.940858
-1.20476 -0.812398 0.0616029 -0.294831 -0.505888 0.807269
-1.21106 -0.716956 0.106636 -0.347964 -0.420881 0.835324
-1.20149 -0.618492 0.146777 -0.495247 -0.301842 0.788923
-1.18766 -0.431901 0.30331 -0.427069 -0.415454 0.799068
-1.20847 -0.0691191 0.60375 -0.621514 -0.414442 0.648111
-1.18895 0.167654 0.930055 -0.167811 -0.884988 0.41657
-1.19935 0.436545 1.34563 -0.0269097 -0.753673 0.551139
-1.20808 0.868793 2.23638 0.351981 -0.733006 0.579378
-1.21046 1.15788 2.36712 0.384837 -0.329704 0.832435
-1.20105 1.619 2.5 0 0 1
-1.17526 -0.325561 0.359676 -0.204422 -0.361659 0.901251
-1.17627 -0.208625 0.480976 -0.366377 -0.754682 0.535879
-1.16051 0.0958125 0.841841 -0.717612 -0.50417 0.457055
-1.1776 0.236296 1.04259 0.163944 -0.82922 0.532992
-1.1682 0.30967 1.18325 -0.0218752 -0.856532 0.488692
-1.16638 0.506022 1.48421 -0.0561977 -0.881774 0.374607
-1.15837 0.595473 1.74081 0.0898583 -0.924635 0.369376
-1.17571 0.661113 1.90015 0.181631 -0.865346 0.451382
-1.17379 1.31167 2.45025 0.182871 -0.494563 0.829723
-1.16319 1.98409 2.5 0 0 1
-1.11996 -1.99578 0 0 0 1
-1.12137 -0.881422 0.0862512 -0.798735 -0.270216 0.535065
-1.1277 -0.67173 0.172169 -0.437654 -0.522723 0.729787
-1.13202 -0.516953 0.262309 -0.627832 -0.402812 0.648695
-1.14458 -0.161351 0.585154 -0.664202 -0.549767 0.504168
-1.13756 -0.0807911 0.68252 -0.560669 -0.659872 0.4976
-1.14422 -0.00867641 0.759597 -0.692138 -0.514046 0.501802
-1.14462 0.538122 1.58485 0.0103131 -0.937574 0.339913
-1.12512 0.814739 2.08826 0.525138 -0.625266 0.561036
-1.1279 0.909657 2.20018 0.566371 -0.55205 0.611216
-1.13872 0.975001 2.28026 0.579308 -0.541777 0.602496
-1.13744 1.07795 2.31502 0.413705 -0.142895 0.881885
-1.14607 1.52426 2.5 0 0 1
-1.12969 1.75876 2.5 0 0 1
-1.11971 1.87294 2.5 0 0 1
-1.10556 -1.89552 0 0 0 1
-1.11493 -1.78545 0 0 0 1
-1.09501 -1.56076 0 0 0 1
-1.09519 -1.20569 0 0 0 1
-1.10663 -1.10216 0 0 0 1
-1.11184 -0.792434 0.146089 -0.739499 -0.243004 0.620262
-1.09262 -0.326885 0.418396 -0.570904 -0.615066 0.541966
-1.08928 0.00551351 0.874633 -0.462794 -0.677815 0.552735
-1.09014 0.387798 1.3749 -0.10172 -0.816142 0.554973
-1.09062 0.57438 1.66628 0.283696 -0.892482 0.344395
-1.09592 0.628318 1.80898 0.230819 -0.894761 0.372964
-1.09155 0.700104 1.9361 0.245545 -0.724758 0.639754
-1.08922 0.76923 2.0122 0.270069 -0.660648 0.694396
-1.11749 1.2407 2.39294 -0.165491 -0.582602 0.794987
-1.10988 1.41294 2.5 -0.00476784 -0.00476784 0.99994
-1.10345 1.63423 2.5 0 0 1
-1.07285 -1.66999 0 0 0 1
-1.08452 -1.44841 0 0 0 1
-1.08339 -1.35443 0 0 0 1
-1.07386 -0.983396 0.052843 -0.549055 -0.644819 0.525575
-1.07412 -0.27546 0.507814 -0.476472 -0.722785 0.497134
-1.06676 -0.162506 0.68828 -0.596528 -0.642203 0.462469
-1.08572 0.173838 0.972385 -0.112966 -0.585294 0.800446
-1.06969 0.231862 1.06659 -0.223774 -0.858261 0.450227
-1.06079 0.282275 1.1787 -0.0484072 -0.902844 0.425616
-1.06633 0.337561 1.28639 -0.0260031 -0.881363 0.471443
-1.05715 0.447637 1.46451 -0.180075 -0.619264 0.749295
-1.07109 1.2798 2.48621 -0.402767 -0.538785 0.713271
-1.02756 -0.861897 0.213005 -0.540249 -0.291398 0.784931
-1.0256 -0.744241 0.21632 -0.709599 -0.117463 0.68995
-1.05382 -0.498738 0.327568 -0.180708 -0.33543 0.921406
-1.04456 -0.225998 0.609829 -0.408796 -0.775682 0.478539
-1.04858 -0.0805654 0.739248 -0.170111 -0.437229 0.877871
-1.05018 0.538148 1.53014 0.214751 -0.781381 0.526612
-1.02758 0.837209 2.08748 -0.443805 -0.680374 0.571172
-1.05098 0.961903 2.21935 -0.391108 -0.526465 0.753146
-1.03327 1.0688 2.31252 -0.240106 -0.142895 0.952003
-1.03965 1.15238 2.35494 -0.458483 -0.635981 0.617711
-1.02557 1.21812 2.42697 -0.43605 -0.66537 0.602214
-1.03526 1.50201 2.5 0 0 1
-1.0385 1.71351 2.5 0 0 1
-1.04226 1.95333 2.5 0 0 1
-1.00967 -1.98136 0 0 0 1
-1.0005 -1.8359 0 0 0 1
-1.00439 -1.60373 0 0 0 1
-1.00017 -1.27788 0 0 0 1
-1.00993 -1.15584 0 0 0 1
-0.993735 -1.06075 0.03005 -0.333694 -0.616367 0.702738
-1.01192 -0.645441 0.241185 -0.355494 -0.178739 0.873631
-1.00045 -0.0295316 0.81851 0.0512328 -0.748975 0.639414
-1.001 0.100009 0.931528 0.0973793 -0.728815 0.651694
-0.99452 0.621133 1.75301 -0.114415 -0.93205 0.341385
-1.01768 0.667292 1.85935 -0.0986903 -0.900798 0.421095
-1.01526 1.38098 2.5 0 0 1
-1.02263 1.82164 2.5 0 0 1
-0.976192 -1.70982 0 0 0 1
-0.98312 -1.48706 0 0 0 1
-0.980135 -1.38955 0 0 0 1
-0.964589 -0.562088 0.297648 -0.314449 -0.581236 0.738434
-0.979389 -0.324489 0.504868 -0.245997 -0.776698 0.576119
-0.982492 0.398627 1.39753 -0.0931183 -0.786853 0.602583
-0.981854 0.589043 1.662 -0.1468 -0.93118 0.327092
-0.986669 0.705329 1.96347 -0.0987177 -0.906364 0.408691
-0.966291 0.8857 2.20028 -0.269456 -0.783195 0.557256
-0.973352 1.26367 2.49338 0.00166145 -0.353021 0.924804
-0.95323 -0.937851 0.200079 -0.121187 -0.60335 0.784148
-0.954391 -0.812406 0.252359 -0.325893 -0.304266 0.891621
-0.948948 -0.485711 0.366332 -0.0277005 -0.628742 0.771895
-0.948848 -0.407211 0.429322 -0.241304 -0.647889 0.710616
-0.930548 -0.256555 0.58484 0.233189 -0.779839 0.578916
-0.937932 -0.203633 0.672362 0.203495 -0.697936 0.685456
-0.941226 -0.0941359 0.766901 0.29932 -0.532791 0.754983
-0.939126 0.0443803 0.870156 -0.151274 -0.732678 0.612759
-0.947799 0.12462 1.01824 -0.563813 -0.67284 0.45965
-0.958747 0.238615 1.12555 -0.32326 -0.786964 0.522207
-0.95498 0.337226 1.29804 -0.175675 -0.773109 0.603661
-0.9563 0.478418 1.47085 -0.422149 -0.64925 0.621123
-0.947592 0.544654 1.57296 -0.466962 -0.772194 0.422605
-0.947674 0.978697 2.29321 -0.305215 -0.552982 0.767591
-0.935895 1.71602 2.5 0 0 1
-0.907439 -1.98381 0 0 0 1
-0.902806 -0.644843 0.292127 -0.446525 0.0493296 0.890289
-0.921886 0.667094 1.88366 -0.212455 -0.863439 0.443613
-0.898252 0.721144 1.9967 -0.279685 -0.841341 0.459322
-0.92532 0.773146 2.07122 -0.189652 -0.739453 0.642916
-0.927682 1.06648 2.37149 -0.347107 -0.535017 0.760683
-0.920859 1.17022 2.44813 -0.144703 -0.492925 0.852084
-0.90672 1.42018 2.5 0 0 1
-0.926766 1.53537 2.5 0 0 1
-0.904462 1.85538 2.5 0 0 1
-0.921683 1.99599 2.5 0 0 1
-0.892019 -1.53724 0 0 0 1
-0.891698 -1.31362 0 0 0 1
-0.867111 -1.12406 0 0.0285489 -0.2743 0.951636
-0.871326 -0.996838 0.146169 -0.0930176 -0.843837 0.524936
-0.873481 -0.922167 0.257797 -0.603586 -0.609706 0.497333
-0.86689 -0.766762 0.347297 -0.573768 0.120201 0.806277
-0.871753 -0.523502 0.32966 0.120765 -0.363969 0.920177
-0.874176 -0.346526 0.480001 0.18802 -0.503264 0.83123
-0.870314 -0.135616 0.713601 -0.155896 -0.660467 0.731886
-0.868954 -0.0181586 0.801205 -0.336604 -0.646778 0.673395
-0.895798 0.158926 1.09853 -0.120852 -0.585208 0.777455
-0.886082 0.2779 1.22312 -0.0370317 -0.875135 0.479907
-0.868445 0.38473 1.4153 -0.0644519 -0.747412 0.654964
-0.889205 0.605884 1.78634 -0.397953 -0.845644 0.355279
-0.887663 0.825551 2.15827 -0.296779 -0.721025 0.624305
-0.87884 0.90929 2.24674 0.0882856 -0.700747 0.702629
-0.874774 1.62944 2.5 0 0 1
-0.854319 -1.89918 0 0 0 1
-0.85275 -1.79631 0 0 0 1
-0.861302 -1.43885 0 0 0 1
-0.849239 -0.429899 0.402678 0.11581 -0.756786 0.642854
-0.841135 0.0717022 1.04107 -0.15078 -0.680892 0.668019
-0.839292 0.312611 1.29798 -0.101393 -0.86688 0.485595
-0.85822 0.462645 1.51993 -0.371668 -0.83336 0.404901
-0.842763 0.985238 2.33385 0.264733 -0.678458 0.670141
-0.838996 1.21206 2.49837 -0.0565155 -0.455389 0.885494
-0.832355 -0.264916 0.551005 0.11775 -0.766216 0.629302
-0.812974 -0.191824 0.636604 0.0123585 -0.797506 0.596914
-0.80533 -0.0136675 0.877529 -0.497234 -0.690236 0.519364
-0.817987 0.478894 1.60783 -0.373489 -0.824035 0.416402
-0.820095 0.542134 1.71328 -0.35499 -0.807278 0.467879
-0.808159 0.842023 2.20381 -0.283193 -0.482263 0.826914
-0.826898 1.13042 2.40658 -0.0861585 -0.639314 0.743394
-0.821211 1.7643 2.5 0 0 1
-0.816163 1.88436 2.5 0 0 1
-0.822696 1.99715 2.5 0 0 1
-0.796842 -1.97619 0 0 0 1
-0.786776 -1.67505 0 0 0 1
-0.790128 -1.57164 0 0 0 1
-0.786539 -1.35447 0 0 0 1
-0.791867 -1.22239 0 0 0 1
-0.793089 -1.033 0.100962 -0.13747 -0.847344 0.510487
-0.796384 -0.97538 0.206037 -0.0525525 -0.8901 0.450474
-0.778553 -0.833776 0.387085 -0.371223 -0.128364 0.915702
-0.774889 -0.726097 0.358266 -0.419239 -0.00996686 0.893721
-0.783266 -0.560267 0.352066 -0.445628 0.173185 0.868983
-0.799069 -0.0903077 0.776533 -0.338247 -0.746848 0.562052
-0.778739 0.340108 1.38384 -0.372236 -0.742421 0.556073
-0.7873 0.589696 1.83113 -0.306855 -0.866327 0.393963
-0.796265 0.744706 2.10171 -0.407834 -0.747392 0.520396
-0.772218 0.939039 2.25398 0.0778482 -0.219848 0.956832
-0.800188 1.40736 2.5 0 0 1
-0.768011 -1.46658 0 0 0 1
-0.743436 -0.932724 0.294387 0.176046 -0.822853 0.534065
-0.740607 -0.247479 0.588075 -0.176925 -0.837206 0.503113
-0.765313 0.617273 1.9197 -0.373752 -0.843861 0.381638
-0.74148 1.03814 2.33127 0.0645539 -0.753506 0.651584
-0.746793 1.17309 2.45119 0.270239 -0.571362 0.767051
-0.766697 1.68178 2.5 0 0 1
-0.720592 -1.151 0.0265158 -0.46119 -0.286123 0.834518
-0.733417 -0.485652 0.391952 -0.623638 -0.191998 0.752474
-0.714018 -0.210241 0.67481 -0.113947 -0.794038 0.575721
-0.711822 -0.134284 0.7463 -0.0605648 -0.774993 0.617224
-0.715938 -0.0631048 0.882753 -0.0177396 -0.809383 0.567383
-0.738543 0.225918 1.19264 -0.375712 -0.586758 0.700742
-0.716336 0.289562 1.30687 -0.181746 -0.871002 0.447809
-0.721673 0.371041 1.45508 -0.320772 -0.829499 0.455277
-0.732306 0.67519 2.07232 -0.384031 -0.760061 0.517379
-0.737045 1.25455 2.5 0.0579996 -0.203307 0.965069
-0.711171 1.36415 2.5 0 0 1
-0.723965 1.47125 2.5 0 0 1
-0.710196 1.57972 2.5 0 0 1
-0.7306 1.93485 2.5 0 0 1
-0.686797 -1.97576 0 0 0 1
-0.695833 -1.72304 0 0 0 1
-0.698123 -1.61026 0 0 0 1
-0.692226 -1.26913 0 -0.138954 -0.0236687 0.982839
-0.690662 -1.06561 0.0829524 -0.33249 -0.531222 0.760071
-0.699109 -0.97523 0.195614 0.238128 -0.828273 0.499015
-0.680144 -0.835771 0.370517 0.264401 -0.739055 0.615017
-0.695093 -0.609822 0.384627 -0.479921 0.0372506 0.861432
-0.694773 -0.325587 0.462209 -0.193969 -0.640923 0.688419
-0.679553 0.431892 1.62003 -0.340038 -0.817672 0.464011
-0.704157 0.528024 1.77776 -0.325734 -0.837371 0.436831
-0.686735 0.566028 1.86715 -0.289233 -0.884462 0.36011
-0.695078 0.611555 1.99603 -0.407023 -0.837319 0.353461
-0.703082 0.736629 2.16294 -0.172026 -0.745555 0.637318
-0.686682 0.81315 2.22347 -0.00209518 -0.308096 0.947813
-0.668195 -1.82447 0 0 0 1
-0.662701 -1.50563 0 0 0 1
-0.671935 -1.37073 0 -0.0113975 -0.0113975 0.999105
-0.65909 -0.898633 0.263134 0.193452 -0.71733 0.615069
-0.662342 -0.742204 0.430251 -0.24473 -0.206441 0.908618
-0.660735 -0.533058 0.455595 -0.777447 -0.297779 0.55266
-0.667946 -0.425484 0.457693 -0.715426 0.0546087 0.693486
-0.662966 0.158606 1.21682 -0.238558 -0.363596 0.858926
-0.67433 0.986778 2.27433 -0.153152 -0.565656 0.801989
-0.675956 1.10383 2.37867 0.255033 -0.563916 0.782863
-0.645812 1.76695 2.5 0 0 1
-0.662882 1.86304 2.5 0 0 1
-0.618781 -1.20821 0.0757649 -0.757641 -0.0142701 0.637462
-0.619862 -0.645946 0.441215 -0.457365 -0.0687193 0.880064
-0.617376 -0.478638 0.533318 -0.663357 0.0332233 0.740504
-0.636547 -0.24749 0.61423 -0.2344 -0.877928 0.41536
-0.630039 -0.189039 0.724482 -0.210874 -0.634499 0.733645
-0.618643 0.00240177 0.988571 0.147621 -0.889413 0.417357
-0.615206 0.0446159 1.08945 0.203352 -0.850819 0.476714
-0.620962 0.244962 1.27002 -0.224851 -0.602947 0.733649
-0.631987 0.35062 1.48146 -0.197656 -0.904595 0.375177
-0.619692 0.475166 1.72025 -0.238464 -0.845028 0.477417
-0.616821 0.67477 2.11403 -0.0305356 -0.702791 0.704187
-0.637537 1.21181 2.49349 -0.0988874 -0.53479 0.823593
-0.587386 -1.99482 0 0 0 1
-0.590615 -1.73384 0 0 0 1
-0.603343 -1.31001 0.0575817 -0.621007 -0.48073 0.605845
-0.601465 -1.1227 0.113996 -0.624282 -0.394358 0.665709
-0.607171 -1.00808 0.160339 -0.680479 -0.430121 0.566645
-0.584844 -0.867622 0.343016 -0.648073 -0.550031 0.521022
-0.613624 -0.340193 0.527022 -0.594247 0.0679211 0.789095
-0.598906 0.303545 1.37733 -0.244103 -0.881923 0.397746
-0.582984 0.379646 1.56125 -0.187567 -0.889886 0.413583
-0.596385 0.51412 1.81555 -0.195335 -0.871913 0.440866
-0.593122 0.558299 1.90066 -0.158985 -0.889184 0.422354
-0.583186 0.751888 2.18597 0.0542388 -0.529586 0.839165
-0.594132 1.14571 2.39543 0.207243 -0.767916 0.604857
-0.608401 1.3658 2.5 0 0 1
-0.604942 1.48023 2.5 0 0 1
-0.591846 1.57356 2.5 0 0 1
-0.585805 1.69174 2.5 0 0 1
-0.564463 -1.8362 0 0 0 1
-0.572996 -1.62829 0 0 0 1
-0.553184 -1.42035 0 -0.0641317 -0.101929 0.98315
-0.565806 -0.732259 0.489602 -0.7105 -0.41621 0.536446
-0.575216 0.839874 2.22016 0.224361 -0.494996 0.828774
-0.553502 0.956967 2.27301 0.181644 0.0318661 0.982104
-0.582187 1.058 2.31372 0.278277 -0.530513 0.799343
-0.556699 1.28236 2.5 0 0 1
-0.553708 1.86831 2.5 0 0 1
-0.539504 -1.51325 0 0 0 1
-0.550666 -1.2131 0.154766 -0.72636 0.0224324 0.686779
-0.541968 -1.07931 0.197222 -0.593353 -0.515136 0.617525
-0.544648 -0.95788 0.312275 -0.783726 -0.38702 0.483117
-0.523553 -0.830979 0.451842 -0.415416 -0.456162 0.777919
-0.549443 -0.578705 0.523046 -0.288235 -0.515343 0.795147
-0.526964 -0.500522 0.575924 -0.291346 -0.242678 0.918321
-0.538571 -0.0173191 0.916094 -0.0368031 -0.786122 0.576338
-0.524768 0.0381829 1.01407 -0.199538 -0.852674 0.451963
-0.550414 0.121556 1.13863 0.162171 -0.793656 0.578429
-0.525359 0.181851 1.24017 -0.510686 -0.652086 0.507921
-0.492151 -1.36329 0.0743358 -0.385492 -0.727394 0.563023
-0.493955 -1.28989 0.185664 -0.342736 -0.567901 0.706488
-0.496336 -1.05262 0.282317 -0.570279 -0.677632 0.461432
-0.497944 -0.923821 0.399386 -0.531647 -0.491375 0.683557
-0.508173 -0.705216 0.577307 -0.414751 -0.348637 0.766369
-0.516349 -0.142317 0.790223 -0.513812 -0.630104 0.581273
-0.519115 0.238611 1.32584 -0.6285 -0.667304 0.398171
-0.513956 0.326846 1.47444 -0.375282 -0.792289 0.444092
-0.507638 0.445519 1.71681 -0.392574 -0.812447 0.423509
-0.498648 0.578553 1.96274 -0.198479 -0.836556 0.491996
-0.513893 0.633111 2.06102 0.0120447 -0.839627 0.539819
-0.499192 1.18094 2.40317 0.16334 -0.888244 0.427149
-0.507024 1.49427 2.5 0 0 1
-0.480415 -1.94228 0 0 0 1
-0.458864 -1.80924 0 0 0 1
-0.465087 -1.67914 0 0 0 1
-0.472004 -1.15949 0.217177 -0.484025 -0.117959 0.860255
-0.46147 -1.01239 0.375761 -0.402485 -0.645878 0.630488
-0.46594 -0.612835 0.595151 -0.561534 -0.0971308 0.813941
-0.469452 -0.244984 0.731869 -0.272824 -0.541844 0.776903
-0.470398 0.051461 1.11968 -0.506337 -0.730394 0.447861
-0.479671 0.247721 1.41686 -0.717471 -0.585642 0.376103
-0.475028 0.351255 1.57104 -0.442972 -0.732271 0.450857
-0.47718 0.756451 2.17868 -0.236968 -0.712958 0.655931
-0.476724 0.841958 2.24606 -0.306342 -0.39246 0.846753
-0.47907 1.03636 2.24178 -0.0403357 -0.135356 0.894942
-0.471371 1.13532 2.30516 0.106422 -0.690993 0.694888
-0.470591 1.23066 2.48105 0.0580911 -0.603704 0.736122
-0.466179 1.33601 2.5 0 0 1
-0.482315 1.67261 2.5 0 0 1
-0.478299 1.99733 2.5 0 0 1
-0.425859 -1.55463 0 0 0 1
-0.427093 -1.4537 0.00828846 -0.00948863 -0.450938 0.86283
-0.430792 -0.336894 0.672838 -0.251507 -0.60765 0.749656
-0.448665 -0.0642056 0.94273 -0.497662 -0.709334 0.492909
-0.431745 0.114137 1.26196 -0.578443 -0.724512 0.373838
-0.442271 0.258922 1.51233 -0.702912 -0.575699 0.410989
-0.428731 0.390024 1.67301 -0.285097 -0.81489 0.491296
-0.453105 0.510979 1.90347 -0.215062 -0.7949 0.557558
-0.448406 1.77245 2.5 0 0 1
-0.447342 1.90026 2.5 0 0 1
-0.39999 -1.3172 0.192333 -0.401297 -0.705802 0.569337
-0.414055 -1.23369 0.239017 -0.498328 -0.312413 0.789601
-0.407669 -1.08849 0.334615 -0.524116 -0.581364 0.610754
-0.398916 -0.560587 0.667515 -0.598856 0.0301759 0.786453
-0.414796 -0.190618 0.794601 -0.518553 -0.61752 0.569713
-0.421931 -0.135865 0.871895 -0.515949 -0.678561 0.52247
-0.405075 -0.0273621 1.03604 -0.396703 -0.789565 0.46727
-0.421938 0.439207 1.77796 -0.0191576 -0.897239 0.435337
-0.42516 0.607929 2.02299 -0.00159145 -0.677348 0.732763
-0.413793 0.673038 2.11221 -0.04492 -0.758705 0.646709
-0.398665 1.1644 2.39118 -0.4545 -0.645592 0.596912
-0.405836 1.41033 2.5 0 0 1
-0.399871 1.50597 2.5 0 0 1
-0.385736 -1.98422 0 0 0 1
-0.362804 -1.70524 0 0 0 1
-0.363785 -1.37844 0.108631 -0.202073 -0.836223 0.507786
-0.371111 -0.809083 0.506055 -0.566948 -0.287925 0.767873
-0.381469 0.0385428 1.18714 -0.357563 -0.801169 0.454771
-0.37534 0.138103 1.37422 -0.106855 -0.887522 0.414142
-0.374485 0.799602 2.21861 0.203764 -0.465654 0.857362
-0.391202 0.899378 2.25757 0.330881 -0.269102 0.902469
-0.377359 1.08988 2.31003 -0.400491 -0.57117 0.700966
-0.369621 1.27997 2.5 0 0 1
-0.376973 1.61948 2.5 0 0 1
-0.362962 1.95816 2.5 0 0 1
-0.335812 -1.82229 0 0 0 1
-0.33396 -1.28031 0.292026 -0.379163 -0.530723 0.741922
-0.349119 -0.971718 0.448856 0.071631 -0.341616 0.923154
-0.358409 -0.735536 0.577143 -0.629265 -0.534742 0.557354
-0.335568 -0.630102 0.694473 -0.24717 -0.404517 0.85018
-0.344317 -0.451827 0.644143 -0.487495 0.413813 0.744401
-0.3613 -0.281866 0.774081 -0.334271 -0.652342 0.674942
-0.337049 -0.103448 0.971619 -0.0109534 -0.814776 0.541708
-0.334246 -0.0100209 1.10679 0.117276 -0.858981 0.485617
-0.356809 0.201189 1.50936 0.0449937 -0.883469 0.448858
-0.356372 0.32282 1.6518 -0.195458 -0.450229 0.856108
-0.352069 0.545859 1.97793 -0.127373 -0.860905 0.475815
-0.335746 0.619857 2.06226 0.0671771 -0.674809 0.721206
-0.36201 0.991279 2.29513 0.269967 -0.486778 0.830615
-0.333606 1.71791 2.5 0 0 1
-0.311563 -1.58911 0 0 0 1
-0.317821 -1.47904 0 0.00339117 -0.193501 0.964162
-0.329022 -0.349816 0.699643 -0.134292 -0.747645 0.641389
-0.324716 0.102678 1.28501 0.285362 -0.826569 0.483363
-0.314831 0.470324 1.79406 0.330966 -0.80186 0.397575
-0.32469 0.73168 2.13996 0.471162 -0.478254 0.733173
-0.301752 1.18602 2.44904 0.0596995 -0.756746 0.634455
-0.285007 -1.9924 0 0 0 1
-0.298294 -1.34555 0.204827 -0.0586915 -0.890575 0.450113
-0.284882 -0.828597 0.554428 -0.069263 -0.381686 0.903955
-0.284767 -0.70729 0.654727 -0.00800327 -0.706881 0.686314
-0.270209 -0.467568 0.716101 -0.635556 0.283573 0.707892
-0.296881 -0.176129 0.860859 0.324987 -0.762761 0.55409
-0.285829 0.0473542 1.18029 0.0891458 -0.796052 0.576783
-0.290321 0.18489 1.42381 0.421713 -0.790706 0.435378
-0.289409 0.278986 1.58084 0.728994 -0.46828 0.477636
-0.287099 0.519488 1.87863 0.52208 -0.7833 0.325151
-0.295829 0.933559 2.24351 0.353085 -0.104305 0.925653
-0.290552 1.41699 2.5 0 0 1
-0.295236 1.53191 2.5 0 0 1
-0.286443 1.88385 2.5 0 0 1
-0.252567 -1.77605 0 0 0 1
-0.25504 -1.66627 0 0 0 1
-0.260632 -1.40116 0.0826258 0.027314 -0.882107 0.467295
-0.263079 -1.11564 0.340144 0.192201 -0.587868 0.780589
-0.257083 -1.00602 0.432644 -0.0624521 -0.601215 0.789495
-0.239682 -0.219394 0.785638 0.237673 -0.514774 0.820177
-0.24005 -0.118544 0.926996 0.328369 -0.813441 0.468536
-0.244694 -0.0500674 1.0147 0.415319 -0.64312 0.61764
-0.240653 0.156213 1.33609 0.178691 -0.808263 0.550633
-0.247508 0.277571 1.48838 0.719433 -0.532919 0.431762
-0.264788 0.453965 1.67562 0.683715 -0.605793 0.399672
-0.239317 0.652826 1.99287 0.631322 -0.411187 0.654353
-0.265905 0.705501 2.06846 0.506196 -0.662101 0.54873
-0.258552 1.03453 2.29131 -0.102314 -0.644351 0.747734
-0.261421 1.28815 2.5 0 0 1
-0.262856 1.63276 2.5 0 0 1
-0.241844 1.97352 2.5 0 0 1
-0.231557 -1.89606 0 0 0 1
-0.215323 -1.57205 0 0 0 1
-0.228126 -0.91085 0.495139 0.43549 -0.458543 0.766346
-0.207907 -0.644223 0.675858 0.365539 -0.35829 0.853246
-0.233132 0.103857 1.25032 0.0542117 -0.82695 0.556382
-0.231001 0.390165 1.5823 0.683716 -0.422452 0.582758
-0.216684 0.513307 1.75142 0.301857 -0.869793 0.381829
-0.223312 0.799663 2.11814 0.667396 -0.249384 0.699012
-0.209088 1.1243 2.3617 0.128939 -0.521002 0.827638
-0.227368 1.72297 2.5 0 0 1
-0.181804 -1.46897 0 0.0145857 -0.277781 0.953716
-0.178162 -0.744442 0.583965 0.343456 -0.722295 0.590936
-0.177074 -0.450434 0.74595 0.264001 0.188767 0.939009
-0.204387 -0.320761 0.709833 -0.0641233 -0.174422 0.97866
-0.17568 0.0462996 1.13535 0.378206 -0.829949 0.409679
-0.185807 0.244033 1.38348 0.308613 -0.444049 0.814597
-0.194116 0.943417 2.21908 0.27369 -0.701522 0.626512
-0.176813 1.18891 2.42854 0.272197 -0.79152 0.542327
-0.204091 1.36797 2.5 0 0 1
-0.17735 1.55669 2.5 0 0 1
-0.204167 1.81478 2.5 0 0 1
-0.148498 -1.98216 0 0 0 1
-0.167954 -1.72699 0 0 0 1
-0.155707 -1.14777 0.324541 0.0335149 -0.574288 0.814788
-0.169764 -1.06603 0.390156 0.289661 -0.576833 0.757015
-0.161951 -0.934649 0.424301 0.543596 -0.373244 0.734504
-0.17229 -0.556163 0.73204 0.474464 -0.427652 0.762102
-0.156287 -0.233795 0.741467 -0.341252 -0.24455 0.846632
-0.147178 -0.0366924 0.937204 0.390773 -0.612086 0.650836
-0.150753 0.00671403 1.02429 0.369007 -0.843227 0.388934
-0.159085 0.481236 1.63989 0.395746 -0.767246 0.483076
-0.156356 0.625558 1.86701 0.507061 -0.761978 0.381926
-0.143612 0.679731 1.96603 0.422785 -0.72038 0.545049
-0.169604 0.747906 2.03835 0.378674 -0.551764 0.723894
-0.15271 0.900316 2.12378 0.630777 -0.554409 0.53931
-0.167944 1.05085 2.31229 0.237938 -0.487902 0.829437
-0.165919 1.45729 2.5 0 0 1
-0.11297 -1.64025 0 0 0 1
-0.11818 -1.29439 0.189256 0.183243 -0.778462 0.598094
-0.124746 -0.357256 0.756787 -0.398136 -0.407746 0.811339
-0.11121 -0.169867 0.810463 -0.267945 -0.707848 0.651766
-0.128681 0.0999692 1.22029 0.324416 -0.846588 0.421318
-0.139576 0.145607 1.3109 0.339097 -0.756755 0.549327
-0.135238 0.386967 1.52374 0.261033 -0.674668 0.676559
-0.136278 0.566322 1.70879 0.66041 -0.564453 0.451636
-0.131517 0.837795 2.03132 0.537927 -0.213187 0.790635
-0.123252 1.25449 2.5 0.0326251 -0.358957 0.894444
-0.128398 1.69582 2.5 0 0 1
-0.141192 1.93673 2.5 0 0 1
-0.09715 -1.536 0 -0.000781936 -0.000781936 0.999996
-0.109149 -1.37599 0.0944807 0.230982 -0.748714 0.619022
-0.0909782 -1.20679 0.265979 0.344692 -0.54447 0.746774
-0.0824629 -1.02654 0.355972 0.426342 -0.158222 0.887501
-0.108609 -0.828055 0.425741 0.372826 -0.167319 0.892441
-0.0873304 -0.750377 0.513447 0.250149 -0.77237 0.578577
-0.100745 -0.676342 0.579425 0.35062 -0.523088 0.769965
-0.0844998 -0.588712 0.635613 0.316224 -0.438172 0.836173
-0.0844537 0.362388 1.4472 0.632928 -0.602442 0.479943
-0.0869247 0.634742 1.80305 0.248759 -0.898831 0.347453
-0.0995533 0.996392 2.21747 0.598915 -0.641376 0.466608
-0.079015 1.08468 2.26436 0.742475 -0.38332 0.548951
-0.0918364 1.18714 2.34276 0.482675 -0.694532 0.501078
-0.0858721 1.35226 2.5 0 0 1
-0.10376 1.8281 2.5 0 0 1
-0.0552428 -1.95553 0 0 0 1
-0.0741208 -1.43285 0.00993661 -0.21656 -0.38142 0.887179
-0.0524955 -0.515709 0.690324 0.0826566 -0.613942 0.772149
-0.0499322 -0.285351 0.78874 -0.0034172 0.258103 0.961108
-0.0728035 0.0817859 1.14113 0.353875 -0.82099 0.445198
-0.0696108 0.287523 1.3445 0.74589 -0.466687 0.470359
-0.0557057 0.468607 1.54846 0.428085 -0.712909 0.553739
-0.0684259 0.675264 1.90108 0.160712 -0.879359 0.447067
-0.0609371 0.750383 2.00334 0.0497974 -0.585664 0.801184
-0.0578877 0.966982 2.09087 0.590956 -0.605279 0.520464
-0.021826 -1.22157 0.18392 0.497624 -0.48169 0.70314
-0.0316968 -0.937091 0.361276 0.301174 -0.554515 0.773026
-0.031967 -0.0898263 0.880425 -0.128232 -0.527082 0.790492
-0.0443248 0.0373029 1.04414 0.114934 -0.870762 0.474108
-0.0197179 0.202254 1.20527 0.766629 -0.269886 0.577304
-0.0279909 0.536974 1.62657 0.277171 -0.667578 0.658321
-0.0328332 0.610926 1.71217 0.185032 -0.864949 0.447551
-0.0353704 0.841636 2.03024 -0.24435 0.0189174 0.963832
-0.0220807 1.06963 2.16157 0.794711 -0.423274 0.432124
-0.0291416 1.22879 2.41743 0.266973 -0.84829 0.436769
-0.0168759 1.6772 2.5 0 0 1
-0.0232857 1.89383 2.5 0 0 1
-0.0439701 1.9992 2.5 0 0 1
3.56875e-05 -1.52498 0.0393105 -0.560987 -0.353755 0.746184
-0.010583 -1.31476 0.119679 -0.148121 -0.519587 0.814141
0.00902475 -0.78116 0.438189 0.316427 -0.734025 0.590249
0.0103682 -0.698227 0.510099 0.364973 -0.557574 0.74263
0.010886 -0.627944 0.577272 0.143576 -0.646952 0.737686
0.0120228 -0.369619 0.772184 0.193725 -0.587157 0.784826
0.0117753 -0.0150805 0.941048 -0.336684 -0.533969 0.764214
0.00786672 0.36122 1.34493 0.397612 -0.811548 0.424057
-0.00988257 0.427937 1.43997 0.534433 -0.564237 0.622081
0.00875883 0.657609 1.78396 0.401109 -0.840201 0.361123
0.0151713 1.05689 2.05758 0.484432 -0.599662 0.633717
0.00414256 1.28856 2.49485 0.211839 -0.401957 0.814819
-0.00484288 1.42678 2.5 0 0 1
-0.00267757 1.56032 2.5 0 0 1
0.0039519 1.78085 2.5 0 0 1
0.0248893 -1.12132 0.225383 0.652568 -0.512204 0.52881
0.0255483 -1.01979 0.2917 0.590711 -0.174542 0.78395
0.0366408 -0.861161 0.352445 0.619397 -0.203962 0.755045
0.0394109 -0.455163 0.705215 -0.0226057 -0.490225 0.868334
0.0439306 -0.172582 0.874332 -0.573852 -0.55908 0.597657
0.016042 0.090185 1.10264 0.239395 -0.718255 0.653186
0.0325087 0.312931 1.23893 0.440378 -0.678798 0.571741
0.0300146 0.704643 1.89459 0.447576 -0.811131 0.37347
0.0313485 0.773319 1.98203 0.333553 -0.662593 0.658809
0.040832 1.21522 2.3422 0.239906 -0.894246 0.376947
0.0530669 -1.95363 0 0 0 1
0.0717908 -1.29079 0.185848 -0.408916 0.052126 0.894263
0.0718038 -0.931272 0.2954 0.344462 -0.44195 0.812465
0.0535435 -0.551824 0.656759 0.336266 -0.355665 0.864197
0.068048 0.0379573 1.0182 0.065687 -0.693498 0.689609
0.0518752 0.532249 1.5668 0.687823 -0.453407 0.539395
0.0617195 0.610758 1.63095 0.422313 -0.810188 0.386768
0.0639769 0.863309 2.07281 0.069843 -0.235585 0.927383
0.0722205 1.13234 2.14151 -0.0677272 -0.695195 0.675889
0.0599715 1.18486 2.24133 0.228788 -0.902452 0.363939
0.0662061 1.97771 2.5 0 0 1
0.108413 -1.68484 0 -0.0849604 -0.133164 0.986961
0.0824285 -1.49389 0.0965331 -0.406629 -0.42659 0.807462
0.0902625 -1.18929 0.167645 0.114797 0.197306 0.972591
0.107118 -1.02055 0.211892 0.588436 -0.511453 0.624058
0.109036 -0.727032 0.437238 0.50645 -0.544905 0.667848
0.109408 -0.0588966 0.988189 -0.12138 -0.163549 0.976326
0.0830144 0.142361 1.16198 0.154731 -0.665289 0.724754
0.107975 0.369328 1.24049 0.184238 -0.655768 0.703788
0.106252 0.4155 1.33163 0.282121 -0.859763 0.421178
0.104998 0.959258 2.0528 0.363193 0.344066 0.853653
0.0957296 1.28141 2.42986 0.188615 -0.83643 0.497413
0.10758 1.82948 2.5 0 0 1
0.140076 -1.42228 0.136784 -0.13891 -0.27832 0.94846
0.139307 -1.10233 0.155338 0.409285 -0.188104 0.891775
0.124975 -0.306031 0.784495 -0.316499 -0.736169 0.595701
0.127958 -0.201478 0.923729 -0.50863 -0.631618 0.58207
0.129029 0.278359 1.2129 -0.0731622 -0.445457 0.857868
0.126659 0.555999 1.48087 0.35322 -0.533452 0.756641
0.112166 0.663677 1.71385 0.416115 -0.802496 0.421339
0.133927 0.762235 1.89951 0.368213 -0.853803 0.364916
0.140069 0.808928 1.99881 0.477537 -0.670926 0.556984
0.111756 1.35425 2.4996 0.0866777 -0.172978 0.967528
0.115803 1.46012 2.5 0 0 1
0.13854 1.56285 2.5 0 0 1
0.12582 1.69919 2.5 0 0 1
0.170518 -1.51738 0.1378 -0.223159 -0.339944 0.896811
0.147357 -0.837326 0.308702 0.553066 -0.650412 0.503319
0.148974 -0.492734 0.655824 0.308181 -0.715931 0.62188
0.14386 -0.408997 0.721004 -0.16764 -0.447424 0.860005
0.14267 0.100232 1.08467 -0.0167542 -0.664967 0.73001
0.165353 0.47505 1.38711 0.222752 -0.661331 0.657742
0.170278 0.74247 1.79703 0.39052 -0.857321 0.335219
0.156322 1.17627 2.23291 -0.390004 -0.78152 0.484032
0.161825 1.22324 2.32826 -0.363891 -0.827117 0.418838
0.168382 1.93711 2.5 0 0 1
0.195112 -1.72658 0 -0.0229597 -0.0326654 0.998381
0.175841 -1.61022 0.0783599 -0.258897 -0.540545 0.795207
0.183605 -1.30712 0.182286 0.13401 -0.0958376 0.977742
0.201706 -1.03354 0.133022 0.318766 -0.280785 0.898689
0.185289 -0.738446 0.367753 0.41986 -0.683527 0.590832
0.184761 -0.660975 0.449306 0.275581 -0.590336 0.758346
0.183751 -0.535238 0.563786 0.139612 -0.750844 0.595738
0.19343 -0.283327 0.863552 -0.157665 -0.790481 0.579289
0.193787 0.0115378 1.01295 0.144258 -0.691203 0.700784
0.178026 0.200416 1.15923 0.329413 -0.476607 0.814032
0.199363 0.625463 1.55639 0.317216 -0.857063 0.402983
0.182187 0.940917 1.98813 0.662443 -0.122088 0.717795
0.193211 1.01438 2.05712 0.213294 -0.8165 0.51865
0.188002 1.07492 2.13157 0.30587 -0.506898 0.763198
0.203489 1.27061 2.42985 -0.524754 -0.573575 0.619208
0.233455 -1.41694 0.173224 -0.117883 -0.293776 0.944838
0.206445 -1.20238 0.14498 0.0437644 0.19331 0.977774
0.20745 -0.938579 0.177758 0.576456 -0.285309 0.759987
0.226531 -0.785911 0.271529 0.428487 -0.688524 0.574318
0.224072 -0.344272 0.782135 0.0415579 -0.7172 0.691853
0.224888 -0.174343 0.970791 0.51019 -0.309436 0.758592
0.233588 0.596511 1.46716 0.348179 -0.538981 0.687849
0.213784 0.725219 1.71386 0.591355 -0.656791 0.434414
0.206331 0.824933 1.90115 0.820256 -0.402524 0.400373
0.236143 1.38991 2.5 -0.0393672 -0.0393672 0.995812
0.230401 1.62133 2.5 0 0 1
0.216976 1.75223 2.5 0 0 1
0.252319 -0.589767 0.518828 -0.0128173 -0.739665 0.646025
0.244663 -0.437722 0.672261 -0.155787 -0.742906 0.632129
0.243436 -0.0550587 0.951296 0.165031 -0.085646 0.957095
0.2498 0.116488 1.10613 0.205243 -0.438442 0.864671
0.245146 0.419746 1.37864 -0.359833 -0.57189 0.719142
0.261905 0.925087 1.92331 0.0854359 -0.775005 0.607438
0.264059 1.1203 2.19021 -0.232084 -0.884404 0.404731
0.248947 1.19885 2.36105 -0.306932 -0.858523 0.399176
0.252993 1.52137 2.5 0 0 1
0.261977 1.97616 2.5 0 0 1
0.27549 -1.59213 0.111387 -0.164584 -0.767389 0.618106
0.295411 -1.51543 0.172114 -0.0502842 -0.295322 0.939373
0.298248 -1.12379 0.117804 -0.0701406 0.250013 0.959554
0.296777 -1.0087 0.111768 0.178602 -0.211394 0.955462
0.278796 -0.848688 0.185066 0.278738 -0.580596 0.760462
0.271647 -0.496819 0.602974 -0.220397 -0.736695 0.628658
0.296607 -0.262078 0.890249 -0.627812 -0.333295 0.6538
0.290044 0.0531277 1.03189 0.0906279 -0.601305 0.788209
0.279805 0.248355 1.1663 -0.0707116 -0.700403 0.698193
0.269581 0.348824 1.29149 -0.241026 -0.770177 0.587021
0.297244 0.693946 1.55563 0.394282 -0.582904 0.692908
0.287107 0.751288 1.64874 0.450734 -0.775782 0.440346
0.2682 0.808496 1.76639 0.508191 -0.719272 0.472085
0.277659 0.86776 1.84083 0.303994 -0.735797 0.599761
0.285315 1.06207 2.08442 -0.289046 -0.843416 0.409758
0.27616 1.26421 2.49284 -0.138362 -0.457335 0.834905
0.299799 -1.84137 0 0 0 1
0.312754 -1.23062 0.151616 0.0369726 0.369024 0.927245
0.319867 -0.401275 0.747802 -0.218965 -0.760124 0.59684
0.308263 -0.345661 0.84279 -0.54368 -0.687172 0.431755
0.330553 -0.218544 0.977932 -0.888817 -0.0868941 0.433954
0.323 -0.102572 0.976092 -0.570504 -0.000618455 0.818817
0.323405 0.489512 1.41413 0.247281 -0.538033 0.800077
0.328271 0.589948 1.4406 0.0542813 -0.394076 0.881005
0.314671 1.00854 2.00229 -0.344018 -0.766139 0.538751
0.300455 1.14948 2.2769 -0.229115 -0.874274 0.426626
0.318244 1.71381 2.5 0 0 1
0.307364 1.85849 2.5 0 0 1
0.343404 -0.928168 0.141409 0.191166 -0.0426865 0.971426
0.349846 1.2028 2.40013 -0.215728 -0.854908 0.449468
0.346062 1.33336 2.5 0 0 1
0.34531 1.47364 2.5 0 0 1
0.362496 -1.35598 0.156779 -0.0914549 -0.121352 0.977518
0.390276 -0.766532 0.206494 -0.181262 -0.73794 0.64238
0.383706 -0.64396 0.347311 -0.0744125 -0.788295 0.542657
0.380708 -0.523228 0.57637 0.215781 -0.836544 0.498765
0.368337 -0.312052 0.938927 -0.233808 -0.799279 0.518727
0.372655 -0.0228098 1.04901 -0.465711 -0.288613 0.821608
0.365501 0.193072 1.13684 -0.352206 -0.571403 0.706651
0.36889 0.295933 1.27327 0.0118735 -0.828755 0.545637
0.362603 0.373294 1.35765 -0.137004 -0.461217 0.870809
0.386509 0.8183 1.69586 0.0456877 -0.860929 0.489487
0.368059 0.908673 1.89515 -0.422199 -0.785147 0.429557
0.383121 1.01039 2.09426 -0.432292 -0.819904 0.370722
0.380042 1.13281 2.32354 -0.54122 -0.662712 0.516541
0.371996 1.24208 2.49557 -0.147886 -0.569986 0.799958
0.37623 1.97374 2.5 0 0 1
0.425195 -1.81705 0 0 0 1
0.394883 -1.45463 0.184738 0.316508 0.24828 0.911869
0.417169 -0.934122 0.0814081 0.554914 -0.271676 0.773121
0.395539 -0.577041 0.477376 -0.00115053 -0.870456 0.48995
0.40032 -0.224963 1.06198 -0.13359 -0.336124 0.866718
0.415114 -0.113717 1.04245 -0.0750152 0.453452 0.874953
0.424726 0.571429 1.44222 0.148527 -0.435213 0.882096
0.402937 0.68016 1.53908 -0.339153 -0.63343 0.693519
0.406664 0.754063 1.61406 -0.382751 -0.711666 0.542743
0.401718 0.926518 1.98442 -0.314412 -0.81219 0.465182
0.418008 1.06168 2.25439 -0.405514 -0.810664 0.41898
0.421551 1.60031 2.5 0 0 1
0.420185 1.71767 2.5 0 0 1
0.429646 -0.851429 0.128421 0.16325 -0.621506 0.760614
0.445027 -0.472954 0.656605 -0.0826822 -0.853394 0.507119
0.426751 0.110626 1.1706 -0.647722 -0.185311 0.738336
0.434942 0.248283 1.19537 -0.328509 -0.406683 0.779045
0.455667 0.378757 1.31547 0.489662 -0.540218 0.671523
0.450177 0.479032 1.36162 0.0435579 -0.504494 0.839873
0.450425 0.871686 1.83767 -0.200162 -0.896694 0.385218
0.441669 1.01653 2.167 -0.254074 -0.893269 0.365063
0.451305 1.15893 2.41791 -0.323492 -0.75985 0.554953
0.454921 1.49714 2.5 0 0 1
0.468648 -1.48021 0.127761 0.557886 -0.116288 0.811822
0.464226 -1.38031 0.138543 0.257546 0.0618863 0.947591
0.48038 -1.27685 0.136566 0.182819 0.117567 0.968415
0.459042 -1.0338 0.0732268 0.364725 0.545147 0.753843
0.469052 -0.655161 0.391104 -0.0972925 -0.695762 0.709807
0.466107 -0.528449 0.529908 0.00330262 -0.85005 0.518954
0.486993 -0.394716 0.746534 0.37334 -0.783372 0.493791
0.483684 0.303848 1.26771 -0.331907 0.091008 0.822945
0.487162 0.758805 1.719 -0.439402 -0.711424 0.543322
0.48313 0.901235 1.93581 -0.180164 -0.894578 0.40589
0.485025 1.23472 2.5 -0.041045 -0.121137 0.977389
0.470943 1.33846 2.5 0 0 1
0.459518 1.91396 2.5 0 0 1
0.502878 -1.57811 0.086707 0.492659 -0.0419129 0.858909
0.514983 -1.1392 0.0806784 0.637619 0.187385 0.741348
0.505442 -0.726089 0.315813 0.0296668 -0.735405 0.664042
0.512047 -0.590348 0.46024 -0.163658 -0.727542 0.665331
0.518866 -0.324049 0.84096 0.370989 -0.808834 0.455372
0.494687 0.161346 1.25207 -0.688217 -0.312916 0.611127
0.49851 0.619985 1.50146 -0.389735 -0.791369 0.457749
0.493914 0.696524 1.64953 -0.434648 -0.717169 0.531376
0.516968 0.933887 2.02447 -0.261893 -0.86898 0.418625
0.491933 1.79896 2.5 0 0 1
0.507883 1.99748 2.5 0 0 1
0.534121 -1.89282 0 0 0 1
0.524973 -1.76178 0 0.0345754 -0.170548 0.972455
0.532149 -0.961182 0.049653 -0.00141436 -0.24076 0.957144
0.544581 -0.114294 1.0492 -0.0809816 -0.219998 0.957916
0.52726 0.417006 1.37438 -0.27018 -0.620435 0.712856
0.531746 0.51842 1.42475 -0.0522451 -0.634723 0.758197
0.546245 0.847013 1.86143 -0.0438112 -0.805515 0.578721
0.529419 1.03098 2.23964 -0.0796633 -0.903417 0.40421
0.52511 1.0843 2.33633 -0.151735 -0.855291 0.475087
0.582601 -1.47614 0.0657942 0.61601 0.121917 0.777188
0.567763 -1.33528 0.0997714 0.656766 -0.079354 0.74457
0.576601 -1.22247 0.101544 0.496407 0.310891 0.777566
0.557018 -0.871981 0.0906392 -0.0148992 -0.733792 0.662142
0.558705 -0.818595 0.172 -0.0169372 -0.840637 0.540516
0.562353 -0.667134 0.369303 0.0939242 -0.774992 0.624182
0.556465 -0.479242 0.602653 -0.013075 -0.835053 0.548809
0.570071 -0.412968 0.695642 0.0812483 -0.763392 0.637632
0.55216 -0.24112 0.950684 0.256509 -0.808819 0.527441
0.561296 0.0780093 1.20868 -0.672886 -0.504687 0.509406
0.568427 0.219298 1.3149 -0.643913 0.0291737 0.758151
0.568716 0.652725 1.6021 -0.0292727 -0.856819 0.508127
0.564432 0.775151 1.78205 0.0312093 -0.795369 0.589525
0.5772 1.00204 2.16082 0.0729025 -0.899434 0.428759
0.55499 1.15583 2.45923 0.00812902 -0.753708 0.643784
0.571627 1.37591 2.5 0 0 1
0.5519 1.48754 2.5 0 0 1
0.562889 1.72903 2.5 0 0 1
0.570236 1.91827 2.5 0 0 1
0.602317 -1.9746 0 0 0 1
0.590154 -1.57515 0.0415064 0.346077 -0.296202 0.881939
0.589559 -1.0562 0.0309643 0.178701 -0.0282798 0.976837
0.599626 -0.733213 0.290902 0.00982149 -0.759353 0.649991
0.583956 -0.532274 0.518931 1.89323e-05 -0.803741 0.592283
0.602282 0.116374 1.32271 -0.732385 -0.404177 0.538467
0.612234 0.294314 1.36657 -0.479377 0.160444 0.850479
0.588895 0.588258 1.49548 -0.280514 -0.732867 0.612269
0.606915 0.714281 1.70212 -0.21644 -0.661555 0.711151
0.601457 0.959727 2.07571 0.0450577 -0.87186 0.482978
0.613953 1.25989 2.5 0 0 1
0.633267 -1.67868 0.0012461 0.0820927 -0.0891584 0.984162
0.632867 -1.16717 0.0258406 0.391198 0.0862486 0.911237
0.633728 -0.948668 0.0708227 -0.0591838 -0.166787 0.956806
0.630097 -0.596304 0.438784 -0.022478 -0.787447 0.610675
0.6433 -0.425356 0.638143 0.218379 -0.697763 0.680877
0.626782 -0.301929 0.84468 0.209384 -0.841958 0.495249
0.615301 -0.183213 1.02114 0.0594796 -0.766137 0.630944
0.614662 -0.00859817 1.20872 -0.501021 -0.753349 0.423862
0.624565 0.186728 1.39343 -0.792352 0.0188657 0.59091
0.644796 0.432767 1.38641 -0.400975 -0.285995 0.862241
0.644639 1.03485 2.23402 -0.175692 -0.904803 0.385825
0.635325 1.59778 2.5 0 0 1
0.641886 1.81146 2.5 0 0 1
0.662153 -1.85754 0 0 0 1
0.660239 -1.44171 0.000499869 0.196131 -0.0988714 0.960212
0.675479 -1.27253 0.00155455 0.351135 -0.0284634 0.930618
0.667678 -0.85606 0.139055 -0.16639 -0.775233 0.608928
0.652075 -0.788347 0.224313 0.0330737 -0.774557 0.628933
0.652998 -0.24794 0.921917 0.247662 -0.785094 0.560454
0.665131 -0.104883 1.09138 -0.523401 -0.60997 0.567455
0.658527 0.0216746 1.3024 -0.263915 -0.791089 0.526034
0.676346 0.259133 1.43259 -0.665316 0.0675712 0.742876
0.66041 0.519425 1.43604 0.042384 -0.721007 0.680205
0.666185 0.897922 1.92178 0.0656926 -0.906856 0.41469
0.659558 1.09687 2.38815 -0.276999 -0.8685 0.408256
0.645795 1.15196 2.49477 -0.277574 -0.570105 0.760907
0.665379 1.49933 2.5 0 0 1
0.663723 1.70204 2.5 0 0 1
0.684897 -1.54893 0.0103919 0.281403 0.198089 0.932319
0.696413 -1.0545 0.0178716 0.231311 -0.247488 0.939988
0.703345 -0.56686 0.508128 0.0292845 -0.831076 0.54159
0.694095 -0.510476 0.581469 -0.151141 -0.706031 0.648255
0.703939 -0.315882 0.7692 0.257569 -0.838086 0.471325
0.703753 -0.0706938 1.20468 -0.664063 -0.569468 0.480668
0.695769 0.167804 1.46109 -0.277457 -0.100268 0.922761
0.678048 0.617844 1.55741 -0.158949 -0.800963 0.574225
0.683354 0.764706 1.74514 -0.0570129 -0.610328 0.787959
0.686676 0.848552 1.84014 -0.00576429 -0.825769 0.559227
0.690859 0.990273 2.15108 -0.191555 -0.902235 0.375939
0.678648 1.36667 2.5 0 0 1
0.681178 1.99839 2.5 0 0 1
0.717503 -1.95839 0 0 0 1
0.724834 -1.74568 0 0 0 1
0.721005 -0.730614 0.286304 0.0628892 -0.694577 0.706554
0.738628 -0.642303 0.391825 -0.297631 -0.792546 0.528915
0.719708 -0.257498 0.847442 0.318086 -0.780985 0.531018
0.724948 -0.179561 1.00123 0.0360083 -0.896781 0.435977
0.732298 0.439589 1.41999 -0.609513 -0.0655517 0.737767
0.728739 0.934265 2.03114 -0.258234 -0.885953 0.375422
0.734875 1.23767 2.5 0 0 1
0.738477 1.58121 2.5 0 0 1
0.739129 1.81063 2.5 0 0 1
0.764809 -1.47639 0 0 0 1
0.759341 -1.36902 0 0 0 1
0.755299 -0.971584 0.0506376 -0.298616 -0.321948 0.897804
0.75965 -0.886044 0.111294 -0.161881 -0.729224 0.647086
0.768521 -0.807203 0.192235 -0.0122722 -0.712368 0.700883
0.771114 -0.0125929 1.30068 -0.178842 -0.782002 0.59521
0.745809 0.547516 1.49073 -0.413335 -0.65402 0.605094
0.759065 0.62902 1.63275 -0.169864 -0.813133 0.495284
0.742209 1.03769 2.32145 -0.297473 -0.851105 0.426464
0.760084 1.11939 2.48815 -0.179788 -0.659226 0.713453
0.764698 1.69901 2.5 0 0 1
0.77159 1.91216 2.5 0 0 1
0.773651 -1.83658 0 0 0 1
0.781606 -1.25869 0 0 0 1
0.776473 -1.12618 0.00384257 -0.0756363 -0.0725186 0.993436
0.791833 -0.51101 0.54611 0.0528775 -0.760935 0.638435
0.773522 -0.360436 0.665053 0.179054 -0.752617 0.62612
0.796955 -0.202437 0.923695 0.114869 -0.90139 0.415429
0.777279 -0.127285 1.13764 0.115419 -0.919659 0.368052
0.775589 0.087612 1.43563 -0.213495 -0.675683 0.683804
0.781457 0.280195 1.46899 -0.406333 -0.08061 0.881534
0.782183 0.399381 1.4959 -0.787068 0.192706 0.579992
0.783012 0.76727 1.76286 -0.396526 -0.673081 0.623171
0.782169 0.835248 1.85359 -0.319578 -0.797781 0.509891
0.775482 0.88291 1.95988 -0.28545 -0.875418 0.388085
0.778281 0.987058 2.2327 -0.101379 -0.919767 0.377342
0.772162 1.461 2.5 0 0 1
0.807778 -1.99318 0 0 0 1
0.807601 -1.6357 0 0 0 1
0.821566 -0.743725 0.246221 0.215963 -0.678204 0.691347
0.819801 -0.576185 0.446974 0.381716 -0.691125 0.598938
0.813692 -0.445327 0.608455 0.0791013 -0.45707 0.862293
0.832821 -0.260802 0.831225 -0.16356 -0.794984 0.583161
0.810694 0.578295 1.56107 -0.450234 -0.424986 0.723233
0.834121 0.688915 1.70143 0.184918 -0.776458 0.593274
0.810244 1.07367 2.39844 0.0530027 -0.901885 0.427552
0.823956 1.33962 2.5 0 0 1
0.836156 -1.73597 0 0 0 1
0.858995 -1.54289 0 0 0 1
0.863254 -1.44149 0 0 0 1
0.839854 -1.03145 0.0369358 -0.0312186 -0.454957 0.879145
0.837615 -0.673361 0.340696 0.401414 -0.696914 0.591169
0.844689 -0.335458 0.743595 -0.145473 -0.818169 0.533013
0.843322 -0.163577 1.00299 0.161004 -0.90199 0.396775
0.844064 0.0387154 1.38264 0.331799 -0.626473 0.697627
0.860095 0.221409 1.49411 -0.111143 -0.263463 0.917821
0.855978 0.295606 1.56648 -0.413117 -0.523566 0.729718
0.853159 0.395669 1.56964 -0.560373 0.367348 0.740399
0.858739 0.848823 1.92183 -0.232324 -0.807352 0.537726
0.835024 0.920875 2.05674 -0.0408531 -0.91852 0.393005
0.839511 1.18531 2.5 0 0 1
0.853229 1.61246 2.5 0 0 1
0.841079 1.98572 2.5 0 0 1
0.894233 -1.9087 0 0 0 1
0.867993 -1.33988 0 0 0 1
0.891589 -1.24658 0 0 0 1
0.884506 -0.932209 0.0660659 0.349733 -0.41552 0.825693
0.875199 -0.820735 0.143682 0.387048 -0.545606 0.732103
0.886925 -0.517238 0.498775 0.26306 -0.833353 0.48108
0.882254 0.108623 1.45794 -0.175525 -0.743882 0.629398
0.876081 0.529703 1.64505 -0.761159 -0.217892 0.59527
0.890827 0.750955 1.79393 -0.104676 -0.817641 0.558122
0.877797 0.959571 2.16198 -0.0222104 -0.919891 0.391401
0.87298 1.04157 2.32764 0.0646248 -0.882991 0.464247
0.867457 1.71805 2.5 0 0 1
0.869682 1.84547 2.5 0 0 1
0.913416 -1.6312 0 0 0 1
0.926167 -1.15297 0.00620536 -0.358531 -0.246392 0.894409
0.913501 -0.696652 0.270693 0.255333 -0.738494 0.619893
0.90194 -0.573333 0.390656 0.347352 -0.653928 0.654429
0.928446 -0.449482 0.57228 0.33068 -0.566333 0.754129
0.900663 -0.372244 0.663071 0.289616 -0.805409 0.510941
0.909953 -0.18369 0.925304 0.371977 -0.710845 0.590859
0.900442 -0.106229 1.12061 0.306638 -0.871648 0.380826
0.92853 0.695078 1.70303 -0.444754 -0.584126 0.629861
0.902771 0.884518 2.00497 -0.132507 -0.856542 0.490631
0.90612 0.999725 2.24817 -0.0216113 -0.874919 0.48201
0.928902 1.28249 2.5 0 0 1
0.908407 1.43382 2.5 0 0 1
0.933004 -1.99463 0 0 0 1
0.954399 -1.03699 0.0490032 0.182351 0.093433 0.971933
0.935359 -0.754235 0.19206 0.262191 -0.707297 0.653273
0.953181 -0.302097 0.731163 0.412477 -0.722136 0.554409
0.943355 -0.238694 0.837819 0.413607 -0.775272 0.476894
0.948224 -0.117701 1.03237 0.304299 -0.87608 0.366108
0.957147 0.0157237 1.29288 0.361599 -0.726632 0.581365
0.948013 0.0819163 1.37928 0.481651 -0.718784 0.492633
0.957663 0.168632 1.4968 0.377499 -0.466925 0.778898
0.938441 0.34134 1.61202 -0.329511 -0.449498 0.816169
0.942104 0.448725 1.66483 -0.648117 -0.392833 0.648911
0.940847 0.591245 1.70854 -0.634296 0.127455 0.759254
0.9597 0.922618 2.0834 -0.0315971 -0.915071 0.399287
0.952952 1.59953 2.5 0 0 1
0.94458 1.96712 2.5 0 0 1
0.991896 -1.81299 0 0 0 1
0.964237 -1.44325 0 0 0 1
0.97504 -1.34544 0 0 0 1
0.985003 -0.867243 0.0784097 0.309584 -0.712509 0.623966
0.99192 -0.0627999 1.1431 0.189629 -0.882609 0.425057
0.975334 0.256396 1.5363 -0.064721 -0.694208 0.712974
0.983327 0.714648 1.78236 -0.495496 -0.603149 0.609256
0.967829 0.820055 1.93583 0.00145531 -0.709523 0.685238
0.984424 0.965096 2.19007 -0.113833 -0.913787 0.387077
0.976661 1.03773 2.32336 -0.169221 -0.855087 0.488713
0.96989 1.09086 2.42079 -0.152603 -0.855572 0.493621
0.976983 1.16117 2.5 -0.0344381 -0.225369 0.957196
0.976981 1.50673 2.5 0 0 1
0.991549 1.71267 2.5 0 0 1
0.968902 1.83598 2.5 0 0 1
1.02246 -1.61682 0 0 0 1
1.00236 -1.23389 0.00423671 0.0442973 -0.186859 0.970672
1.01965 -1.14195 0.036525 0.303722 -0.229641 0.91731
1.0112 -0.689145 0.223894 0.461227 -0.634599 0.617441
1.02047 -0.516977 0.368621 0.480699 -0.68953 0.539549
1.00054 -0.350348 0.619835 0.484129 -0.726328 0.486369
1.00233 -0.141535 0.952968 0.0213343 -0.899186 0.43602
1.02124 0.163896 1.42095 0.275704 -0.781203 0.553077
1.00483 0.381564 1.68877 -0.698261 -0.480134 0.527959
1.01071 0.607262 1.78093 -0.719032 0.00505572 0.691802
0.997984 1.38523 2.5 0 0 1
1.05129 -1.99617 0 0 0 1
1.03704 -1.7166 0 0 0 1
1.03945 -0.9619 0.00545496 0.299268 0.12092 0.941883
1.02549 -0.765772 0.14331 0.479681 -0.535489 0.694965
1.03011 -0.584665 0.28981 0.628023 -0.518173 0.579053
1.02961 -0.409676 0.526591 0.487239 -0.54003 0.684377
1.03846 -0.277651 0.670649 0.528847 -0.720363 0.44363
1.03395 -0.213213 0.804526 0.307251 -0.851049 0.425109
1.03095 0.298133 1.63819 -0.418637 -0.74187 0.514297
1.05458 0.386232 1.77918 -0.696868 -0.52622 0.476418
1.02688 0.493803 1.77104 -0.846895 -0.0679005 0.52517
1.05362 1.28484 2.5 0 0 1
1.06817 -1.43181 0 0 0 1
1.0859 -0.606952 0.21192 0.416371 -0.605971 0.673713
1.06105 -0.463414 0.444273 0.262836 -0.829809 0.490062
1.07922 -0.108274 1.05436 0.107031 -0.881164 0.439927
1.06791 0.0967254 1.31588 -0.0750475 -0.873041 0.480904
1.07265 0.459929 1.85121 -0.777631 -0.0648343 0.618388
1.07718 0.652842 1.83138 -0.695889 0.0236286 0.704589
1.05693 0.809882 1.87927 -0.0603328 -0.598509 0.777316
1.05524 0.906869 2.04631 0.0390751 -0.926764 0.364007
1.0842 0.991398 2.29035 0.0682505 -0.866176 0.48913
1.05858 1.0679 2.38863 0.0561844 -0.785425 0.609973
1.05513 1.56148 2.5 0 0 1
1.08398 1.77359 2.5 0 0 1
1.0686 1.87117 2.5 0 0 1
1.07924 1.98294 2.5 0 0 1
1.10351 -1.87341 0 0 0 1
1.09117 -1.29824 0 0 0 1
1.09784 -1.18373 0.00452686 0.0906857 -0.0660884 0.992827
1.10098 -1.06167 0.00439093 0.23357 0.0811476 0.961578
1.09448 -0.878127 0.0244977 0.231373 -0.509312 0.798953
1.09015 -0.800712 0.0789612 0.499008 -0.397246 0.768657
1.09032 -0.691877 0.156663 0.511237 -0.489264 0.69942
1.11118 -0.527383 0.302507 0.157864 -0.824058 0.541703
1.10644 -0.176234 0.860277 0.0835666 -0.923563 0.373968
1.11763 -0.137529 0.961329 0.222927 -0.893682 0.387468
1.08777 -0.0202841 1.12506 0.190367 -0.589787 0.780485
1.10965 0.19176 1.47082 0.0347357 -0.860366 0.50171
1.1061 0.242881 1.55205 -0.0329674 -0.872247 0.487298
1.11552 1.19414 2.5 -0.00837449 -0.00837449 0.99988
1.09449 1.46757 2.5 0 0 1
1.10117 1.6722 2.5 0 0 1
1.14769 -1.97425 0 0 0 1
1.12719 -1.74908 0 0 0 1
1.13526 -1.64146 0 0 0 1
1.1287 -1.52265 0 0 0 1
1.1429 -0.960613 0 1.07004e-05 -1.07004e-05 1
1.12682 -0.367027 0.515187 -0.0913642 -0.634914 0.761229
1.1187 -0.284846 0.602331 0.0215473 -0.837223 0.540688
