ply
format ascii 1.0
comment Created by Open3D
element vertex 833
property double x
property double y
property double z
property double nx
property double ny
property double nz
end_header
0.781186 0.601191 0.101287 0.781286 0.601257 0.100685
0.100484 0.0776918 0.987435 0.103512 0.0800328 0.986658
0.769327 0.630312 -0.0063334 0.769333 0.630317 -0.00629572
0.756648 0.628595 -0.117446 0.756748 0.62869 -0.116748
0.812579 0.55717 -0.138628 0.812713 0.557263 -0.137804
0.704599 0.647925 -0.262535 0.704935 0.648247 -0.261021
0.750393 0.57474 -0.29907 0.750849 0.575115 -0.297363
0.324916 0.275399 0.899692 0.328715 0.278524 0.897348
0.390849 0.337323 0.851218 0.394217 0.34015 0.848533
0.620789 0.619042 -0.470736 0.621771 0.620022 -0.468252
0.689452 0.593622 -0.40127 0.690195 0.594273 -0.399053
0.700966 0.517295 -0.475568 0.702084 0.518152 -0.473066
0.485463 0.406074 0.765511 0.488257 0.408292 0.762568
0.592385 0.511499 -0.610735 0.594089 0.513021 -0.607839
0.59191 0.438406 -0.66796 0.594086 0.440044 -0.664974
0.553121 0.495695 0.660173 0.555123 0.49745 0.657199
0.62725 0.485129 0.598218 0.628999 0.486446 0.595342
0.595959 0.406737 0.688726 0.598355 0.408357 0.685707
0.513813 0.482563 -0.707424 0.516021 0.484637 -0.704377
0.495328 0.383581 -0.77099 0.49814 0.385858 -0.768057
0.674864 0.576924 0.442384 0.675819 0.577683 0.440009
0.682386 0.507251 0.514546 0.683721 0.508192 0.511894
0.40721 0.342026 -0.842823 0.410493 0.344815 -0.840078
0.337357 0.226595 -0.911156 0.341561 0.22942 -0.908893
0.765906 0.460276 -0.433422 0.766902 0.460892 -0.431081
0.822113 0.359355 -0.429668 0.823161 0.359831 -0.427342
0.743428 0.410076 -0.515176 0.744843 0.410892 -0.512522
0.482644 0.320144 0.811947 0.485994 0.322365 0.809087
0.55304 0.347075 0.750281 0.555968 0.348861 0.74731
0.561813 0.249868 0.781688 0.565232 0.251359 0.778774
0.647694 0.271791 0.710707 0.650523 0.272977 0.707665
0.683292 0.426957 -0.584454 0.685057 0.42807 -0.581599
0.663096 0.357309 -0.646461 0.665314 0.358582 -0.643509
0.723615 0.308407 0.609336 0.725716 0.309297 0.606442
0.592499 0.35342 -0.719116 0.595188 0.355035 -0.71609
0.502557 0.28432 -0.81139 0.506015 0.286329 -0.808529
0.711471 0.426708 0.553419 0.713059 0.42766 0.550618
0.776805 0.336734 0.524833 0.778365 0.337395 0.522141
0.788473 0.440832 0.413237 0.789405 0.441327 0.410974
0.423204 0.249601 -0.86477 0.427099 0.251952 -0.86218
0.822332 0.470656 0.291035 0.822833 0.470914 0.289371
0.841157 0.525567 0.0571281 0.841217 0.525598 0.0567882
0.852698 0.479844 0.173188 0.852876 0.479942 0.172157
0.887678 0.437443 0.062367 0.887746 0.437472 0.061996
0.833844 0.540771 -0.0498092 0.833893 0.540803 -0.0495129
0.901412 0.414139 -0.0508753 0.901463 0.41417 -0.0505726
0.864877 0.457122 -0.172877 0.865056 0.457219 -0.171849
0.272761 0.162823 0.943245 0.277484 0.165457 0.941408
0.815945 0.521122 -0.230893 0.816243 0.521315 -0.229544
0.823919 0.425047 -0.357619 0.824621 0.425418 -0.355605
0.860009 0.415846 -0.266553 0.860428 0.416077 -0.265017
0.361169 0.189239 0.909438 0.365645 0.191521 0.907163
0.436037 0.249801 0.858641 0.439964 0.251951 0.856008
0.324676 0.103896 -0.936068 0.329729 0.105573 -0.934106
0.225716 0.0481666 -0.969864 0.231327 0.0493811 -0.968488
0.957514 0.208648 0.187041 0.95773 0.208693 0.185928
0.929729 0.314896 0.14365 0.92989 0.314947 0.142795
0.956927 0.251284 0.0665012 0.957005 0.251299 0.0661055
0.937675 0.332015 0.0153758 0.937693 0.332018 0.0152843
0.127001 0.0309817 -0.987082 0.130828 0.0319152 -0.986284
0.912892 0.366282 -0.15584 0.913062 0.366352 -0.154913
0.936525 0.314236 -0.0792494 0.936612 0.314271 -0.0787779
0.20578 0.0843583 0.972477 0.211128 0.0865467 0.971146
0.909466 0.305556 -0.251599 0.909866 0.305705 -0.250141
0.917323 0.211833 -0.316817 0.917958 0.211988 -0.315017
0.952836 0.201995 -0.213705 0.953122 0.202064 -0.212446
0.877153 0.310129 -0.349633 0.877871 0.310401 -0.34766
0.509284 0.168658 0.840375 0.513357 0.169978 0.837613
0.434706 0.118788 0.886482 0.439343 0.119955 0.884045
0.792246 0.319438 -0.511591 0.793745 0.32005 -0.508951
0.864305 0.242893 -0.42373 0.865369 0.243224 -0.421427
0.828749 0.204123 -0.508851 0.830297 0.20452 -0.506221
0.63553 0.186082 0.741347 0.638749 0.186979 0.73836
0.70309 0.271909 -0.648281 0.705488 0.272858 -0.645326
0.771344 0.235061 -0.581406 0.773306 0.235684 -0.578557
0.677995 0.190466 -0.706632 0.680899 0.191282 -0.703585
0.722952 0.221555 0.642906 0.72539 0.222231 0.63996
0.782044 0.237559 0.567981 0.783919 0.238116 0.565153
0.600841 0.233869 -0.757282 0.604098 0.235154 -0.754324
0.522124 0.194448 -0.828837 0.526028 0.19591 -0.826008
0.6152 0.124823 -0.772054 0.618771 0.125552 -0.769123
0.824478 0.328444 0.448691 0.825652 0.328901 0.446292
0.852688 0.193772 0.471434 0.854046 0.194065 0.468948
0.889838 0.225391 0.387348 0.89072 0.225612 0.385184
0.425213 0.158638 -0.885148 0.429669 0.160352 -0.882702
0.905624 0.312215 0.257376 0.906054 0.312333 0.255888
0.867717 0.335511 0.355136 0.868453 0.335792 0.353135
0.926771 0.218851 0.28012 0.927286 0.218961 0.278513
0.635848 0.0863587 0.758607 0.63933 0.0867474 0.755651
0.582591 0.00598524 0.80881 0.58658 0.00601084 0.805945
0.731508 0.113079 -0.663802 0.734165 0.113535 -0.660823
0.790457 0.109814 -0.592365 0.792579 0.110129 -0.589498
0.790269 0.00660582 -0.604981 0.792516 0.00663409 -0.602094
0.719688 0.0203738 -0.689331 0.722578 0.0204611 -0.686311
0.704889 0.13796 0.693252 0.707762 0.138521 0.690226
0.739694 0.0607576 0.660107 0.742352 0.0609155 0.657134
0.784564 0.128836 0.597263 0.786723 0.129149 0.594389
0.643115 0.0168678 -0.75826 0.646618 0.0169954 -0.755304
0.8505 0.101671 0.501232 0.852045 0.101827 0.498632
0.882215 0.00692345 0.459356 0.883537 0.00693002 0.456916
0.432862 0.0533817 -0.894248 0.437675 0.0540915 -0.891867
0.519287 0.0865246 -0.846308 0.523581 0.0872517 -0.843588
0.923422 0.119442 0.345409 0.92417 0.119529 0.343459
0.954574 0.109208 0.246038 0.95498 0.109234 0.244609
0.973085 0.137104 0.136168 0.973244 0.137122 0.135358
0.980796 0.0286834 0.166293 0.980993 0.0286833 0.165304
0.985126 0.139442 0.0115734 0.98514 0.139442 0.0115046
0.988059 0.0599534 0.0612795 0.988132 0.0599533 0.0609149
0.989776 0.0569028 -0.0468954 0.989831 0.0569135 -0.0466164
0.97642 0.158364 -0.0810431 0.976514 0.158382 -0.0805609
0.977171 0.0846517 -0.147132 0.977343 0.0846715 -0.146257
0.361955 0.0591229 0.928401 0.367133 0.0599268 0.926307
0.952734 0.111011 -0.251519 0.953155 0.111076 -0.250062
0.942072 0.0264168 -0.314133 0.942716 0.026442 -0.312347
0.923747 0.10906 -0.347709 0.924501 0.109164 -0.345747
0.481236 0.0288741 0.869682 0.485832 0.0290926 0.867127
0.873562 0.130375 -0.452798 0.874826 0.130585 -0.450383
0.905426 0.0110548 -0.41517 0.906495 0.0110796 -0.412899
0.854719 0.0363359 -0.505379 0.856295 0.0364175 -0.502762
0.989853 -0.029683 0.0733415 0.989939 -0.0296902 0.0729051
0.983579 -0.160291 0.00642757 0.983587 -0.160292 0.00638932
0.186373 -0.0073708 0.981572 0.191989 -0.00759291 0.980433
0.982834 -0.0305829 -0.143701 0.983004 -0.0305831 -0.142846
0.991294 -0.0483399 -0.0400542 0.991341 -0.0483401 -0.0398159
0.975251 -0.145453 -0.105825 0.975375 -0.145466 -0.105196
0.307446 -0.0116145 0.946356 0.312881 -0.0119645 0.944572
0.961487 -0.0651912 -0.237542 0.961864 -0.0652067 -0.236158
0.929104 -0.0615118 -0.34549 0.929857 -0.0615434 -0.343539
0.953701 -0.168019 -0.229821 0.954048 -0.168068 -0.228477
0.925326 -0.156452 -0.327119 0.926007 -0.156562 -0.325264
0.403568 -0.0258589 0.911355 0.408601 -0.0262105 0.909094
0.884037 -0.0918407 -0.4403 0.885242 -0.0919289 -0.437933
0.834146 -0.0633068 -0.538898 0.835909 -0.0634268 -0.536153
0.846087 -0.161648 -0.498436 0.847604 -0.161935 -0.495846
0.566769 -0.0968572 0.81445 0.570743 -0.0975795 0.811594
0.65639 -0.0431486 0.745241 0.659755 -0.0434428 0.742261
0.749547 -0.0840991 -0.6453 0.752085 -0.084325 -0.642349
0.72483 -0.0418143 0.680492 0.727643 -0.0419939 0.677486
0.672761 -0.0966097 -0.727485 0.675947 -0.0970244 -0.724473
0.590646 -0.0938276 -0.7951 0.594451 -0.0944057 -0.79221
0.835425 -0.0976389 0.530178 0.837129 -0.0978586 0.527467
0.83544 -0.000719242 0.548009 0.837267 -0.000720916 0.545229
0.887554 -0.0972574 0.432722 0.88871 -0.0974113 0.430384
0.553048 -0.0036008 -0.832628 0.557263 -0.00362813 -0.829811
0.491239 -0.0889377 -0.861173 0.49569 -0.0897037 -0.858558
0.412873 -0.0483814 -0.905196 0.417823 -0.0489072 -0.902891
0.953339 -0.0049487 0.283962 0.953879 -0.00495356 0.282334
0.931347 -0.115222 0.320657 0.932005 -0.115333 0.318837
0.923707 -0.025317 0.375031 0.924564 -0.0253414 0.372925
0.970151 -0.0948858 0.199338 0.970394 -0.0949112 0.198155
0.274434 -0.0356266 -0.955652 0.279962 -0.0361549 -0.95403
0.783975 -0.168742 -0.590178 0.786062 -0.169186 -0.587315
0.777973 -0.2719 -0.560546 0.779769 -0.272521 -0.557729
0.706788 -0.1942 -0.671568 0.709453 -0.194881 -0.668576
0.739145 -0.222537 0.623585 0.741406 -0.223286 0.620669
0.605086 -0.196043 -0.762987 0.608485 -0.197044 -0.760039
0.521493 -0.194235 -0.829386 0.525404 -0.19569 -0.826558
0.80891 -0.192587 0.550837 0.810697 -0.193014 0.548046
0.854369 -0.220689 0.453722 0.855602 -0.221048 0.451303
0.815597 -0.310668 0.474369 0.816905 -0.311184 0.471872
0.876726 -0.281103 0.378894 0.877553 -0.28137 0.376768
0.925252 -0.212361 0.291172 0.9258 -0.212497 0.289507
0.914887 -0.302113 0.237726 0.915243 -0.302242 0.236341
0.95175 -0.220404 0.199445 0.951988 -0.220462 0.198262
0.939395 -0.286642 0.132957 0.939542 -0.286695 0.132166
0.967635 -0.205095 0.0987496 0.967749 -0.205121 0.0981619
0.910358 -0.370097 0.169287 0.910542 -0.370173 0.16828
0.952252 -0.240952 -0.142747 0.952417 -0.240985 -0.141898
0.935758 -0.323226 -0.0601133 0.935828 -0.32324 -0.0597556
0.914056 -0.364156 -0.15077 0.914222 -0.364222 -0.149872
0.239522 -0.085483 0.962536 0.244803 -0.087484 0.961032
0.898785 -0.27035 -0.319312 0.899425 -0.270518 -0.317498
0.890509 -0.35482 -0.264321 0.890949 -0.354989 -0.262797
0.445976 -0.106292 0.882638 0.450574 -0.107446 0.880174
0.363619 -0.14769 0.918512 0.368379 -0.149639 0.916302
0.858149 -0.256698 -0.427271 0.859244 -0.256998 -0.424954
0.805929 -0.321059 -0.486091 0.807299 -0.321598 -0.483548
0.642369 -0.150878 0.744377 0.645639 -0.151704 0.741396
0.658334 -0.242786 0.709777 0.661196 -0.243844 0.706734
0.566234 -0.223706 0.787024 0.569745 -0.225114 0.78412
0.915622 -0.397997 -0.000645056 0.915623 -0.397997 -0.000641217
0.886329 -0.436329 -0.0798619 0.886417 -0.436365 -0.0793867
0.831122 -0.550591 -0.0270736 0.831149 -0.550608 -0.0269125
0.840007 -0.429039 -0.304385 0.840565 -0.429289 -0.30265
0.858206 -0.460935 -0.201412 0.858429 -0.461052 -0.200218
0.785582 -0.496138 -0.358606 0.786259 -0.496564 -0.356587
0.429115 -0.204541 0.873379 0.433258 -0.206622 0.87085
0.780774 -0.424598 -0.440388 0.781854 -0.425143 -0.438021
0.844325 -0.366289 -0.386697 0.845158 -0.36665 -0.384535
0.488433 -0.274982 0.825293 0.492024 -0.277019 0.822457
0.572245 -0.317311 0.747883 0.575198 -0.319004 0.744909
0.699652 -0.319599 -0.628753 0.70187 -0.320585 -0.625828
0.720416 -0.390133 -0.56562 0.722125 -0.391048 -0.562795
0.619221 -0.389831 -0.675068 0.62158 -0.391305 -0.672071
0.709774 -0.317303 0.619148 0.711909 -0.318288 0.616239
0.674726 -0.434752 0.589204 0.67651 -0.435908 0.586342
0.632663 -0.291845 -0.713842 0.63547 -0.293135 -0.710807
0.537144 -0.274127 -0.790199 0.54057 -0.275775 -0.7873
0.747527 -0.385272 0.530361 0.749047 -0.386072 0.527649
0.837411 -0.382107 0.384142 0.838222 -0.382478 0.381991
0.742586 -0.474184 0.45976 0.743696 -0.474904 0.457318
0.447964 -0.252758 -0.852243 0.451833 -0.254869 -0.849565
0.410375 -0.173041 -0.890231 0.414836 -0.174912 -0.887821
0.872026 -0.388789 0.273697 0.872481 -0.389004 0.272124
0.826284 -0.489185 0.250557 0.826643 -0.48941 0.249104
0.326707 -0.139911 -0.932035 0.331577 -0.14199 -0.930004
0.19584 -0.0952811 -0.973628 0.20108 -0.0977101 -0.972317
0.843214 -0.503833 0.143148 0.843355 -0.503927 0.142296
0.869742 -0.476969 0.0336495 0.869776 -0.476992 0.0334492
0.0734866 -0.0396269 0.991737 0.075701 -0.040821 0.991226
0.544753 -0.381286 -0.740684 0.547499 -0.383196 -0.737696
0.483081 -0.453963 -0.741976 0.485558 -0.45622 -0.738991
0.453842 -0.350778 -0.814597 0.457055 -0.353211 -0.811741
0.658127 -0.540548 0.510089 0.659346 -0.541589 0.507455
0.701747 -0.561831 0.421318 0.70259 -0.562539 0.419024
0.375673 -0.31596 -0.864798 0.379208 -0.318813 -0.862208
0.764468 -0.536533 0.343316 0.765078 -0.536965 0.341376
0.789443 -0.572279 0.204249 0.789652 -0.572436 0.20304
0.708584 -0.630833 0.28825 0.708985 -0.631216 0.2866
0.236406 -0.189388 -0.94764 0.24074 -0.192712 -0.945878
0.74114 -0.645239 0.132019 0.741251 -0.645348 0.131233
0.805847 -0.574927 0.0767882 0.805918 -0.574983 0.0763312
0.754293 -0.647559 0.0132689 0.754304 -0.647571 0.0131899
0.0675206 -0.0597243 -0.991085 0.0695552 -0.061524 -0.990534
0.76923 -0.616227 -0.0982594 0.769327 -0.616292 -0.0976747
0.803587 -0.563294 -0.169904 0.803754 -0.563405 -0.168893
0.258004 -0.190395 0.942356 0.262253 -0.193725 0.940503
0.77874 -0.552372 -0.273488 0.779155 -0.552657 -0.271915
0.726965 -0.641114 -0.219576 0.727209 -0.641314 -0.218286
0.713295 -0.594391 -0.352768 0.713899 -0.594881 -0.350779
0.313766 -0.269684 0.906268 0.317502 -0.272997 0.903971
0.395275 -0.309672 0.858802 0.39875 -0.312498 0.85617
0.717615 -0.52291 -0.444676 0.718623 -0.523625 -0.442292
0.65815 -0.608282 -0.429275 0.659015 -0.609035 -0.42695
0.632452 -0.567166 -0.515654 0.63368 -0.568247 -0.512998
0.503129 -0.377782 0.76905 0.50597 -0.379995 0.766114
0.639564 -0.461523 -0.6049 0.641393 -0.462823 -0.602013
0.541922 -0.489906 -0.675269 0.543995 -0.491757 -0.672271
0.557959 -0.557736 -0.607403 0.559564 -0.55934 -0.604512
0.516711 -0.485633 0.70245 0.518885 -0.487688 0.69941
0.591951 -0.402278 0.695984 0.594387 -0.403935 0.692953
0.58481 -0.563966 0.57715 0.586271 -0.56538 0.574307
0.163462 -0.239692 0.951879 0.166567 -0.244271 0.950191
0.626568 -0.731576 -0.238337 0.626825 -0.731857 -0.236949
0.669351 -0.674024 -0.295799 0.669762 -0.674437 -0.29411
0.551352 -0.769075 -0.300378 0.551708 -0.769554 -0.298664
0.613893 -0.691494 -0.367607 0.61445 -0.69211 -0.36554
0.294055 -0.381715 0.869753 0.296812 -0.385399 0.867198
0.577952 -0.665897 -0.454189 0.57882 -0.66685 -0.451769
0.540141 -0.636702 -0.541709 0.541303 -0.638054 -0.538953
0.388217 -0.415619 0.819376 0.390996 -0.418605 0.816529
0.397403 -0.551444 0.727987 0.399279 -0.554065 0.724976
0.480648 -0.616497 -0.611876 0.482109 -0.618264 -0.608978
0.457631 -0.543016 -0.699303 0.459546 -0.545274 -0.696267
0.481645 -0.562461 0.662246 0.483357 -0.56452 0.659269
0.388103 -0.513966 -0.756743 0.390267 -0.516699 -0.753784
0.370997 -0.438793 -0.813612 0.37362 -0.441838 -0.810755
0.598184 -0.626921 0.486699 0.599194 -0.627995 0.484154
0.506364 -0.671891 0.530855 0.507383 -0.673282 0.528141
0.564172 -0.695122 0.428153 0.56487 -0.696024 0.425832
0.307967 -0.374827 -0.867873 0.31094 -0.378307 -0.865305
0.260623 -0.299293 -0.915364 0.263996 -0.303106 -0.913132
0.64134 -0.709019 0.265056 0.64164 -0.709384 0.263527
0.584487 -0.781867 0.197994 0.58463 -0.782059 0.196818
0.534478 -0.789226 0.28424 0.53478 -0.789676 0.282611
0.669979 -0.717271 0.160137 0.670107 -0.71741 0.159184
0.687529 -0.717256 0.0466719 0.687564 -0.717298 0.0463941
0.578823 -0.806108 0.0495146 0.578855 -0.806157 0.04922
0.658631 -0.731874 -0.118421 0.65873 -0.731973 -0.117716
0.631541 -0.765206 -0.0308776 0.631567 -0.765232 -0.0306938
0.581789 -0.790534 -0.153142 0.581897 -0.790678 -0.15223
0.401724 -0.763722 0.48893 0.402372 -0.765058 0.486376
0.431502 -0.800438 0.401668 0.431961 -0.801315 0.399449
0.213037 -0.426506 -0.872464 0.215218 -0.430585 -0.869928
0.441892 -0.839466 0.285895 0.44212 -0.839963 0.284257
0.155283 -0.258769 -0.94809 0.158157 -0.263429 -0.946336
0.516915 -0.834057 0.162622 0.517014 -0.834221 0.161654
0.427488 -0.879437 0.184392 0.427581 -0.879633 0.183295
0.396313 -0.915435 0.0104274 0.396318 -0.915447 0.0103653
0.49505 -0.856908 0.0621773 0.495078 -0.856976 0.0618072
0.0929026 -0.169541 -0.980868 0.095702 -0.17465 -0.979685
0.547605 -0.829087 -0.0597442 0.547644 -0.829146 -0.0593886
0.462114 -0.8738 -0.0685869 0.462159 -0.873867 -0.0681787
0.408158 -0.892218 -0.162357 0.408239 -0.892391 -0.161391
0.510932 -0.833867 -0.193101 0.511051 -0.834061 -0.191951
0.0876603 -0.178374 0.979418 0.0902173 -0.183623 0.978207
0.440303 -0.850361 -0.25655 0.440528 -0.850743 -0.255066
0.473849 -0.799448 -0.352904 0.47426 -0.800111 -0.350914
0.201315 -0.368136 0.90308 0.203634 -0.372515 0.900761
0.207086 -0.487014 0.845309 0.208786 -0.491019 0.842582
0.37354 -0.831463 -0.401596 0.373963 -0.832358 -0.399378
0.430125 -0.762972 -0.465005 0.430822 -0.764129 -0.462543
0.409937 -0.722489 -0.550014 0.410844 -0.724079 -0.547226
0.333537 -0.800981 -0.487584 0.334108 -0.802349 -0.485035
0.289264 -0.530801 0.788927 0.291013 -0.534159 0.786026
0.305661 -0.611943 0.723541 0.307065 -0.614792 0.720522
0.392752 -0.64661 -0.643806 0.394102 -0.648764 -0.640858
0.290778 -0.643155 -0.706394 0.292023 -0.645908 -0.703347
0.410556 -0.635002 0.646065 0.411938 -0.637158 0.643113
0.416618 -0.704848 0.567145 0.417597 -0.706535 0.564317
0.33341 -0.697778 0.622805 0.334405 -0.699939 0.61989
0.287719 -0.563149 -0.766002 0.28943 -0.566285 -0.76306
0.270697 -0.492866 -0.823735 0.27269 -0.496463 -0.820896
0.316366 -0.880292 -0.333684 0.316629 -0.880955 -0.331795
0.342058 -0.905313 -0.229666 0.342185 -0.905639 -0.228324
0.217915 -0.953777 -0.19541 0.217967 -0.954003 -0.194247
0.225252 -0.901997 -0.352492 0.225446 -0.902751 -0.350504
0.125948 -0.434824 0.885305 0.127163 -0.439434 0.88286
0.245504 -0.858354 -0.43301 0.245859 -0.859466 -0.430671
0.1915 -0.830361 -0.51284 0.191874 -0.83194 -0.510195
0.197681 -0.56336 0.795522 0.198921 -0.567005 0.792633
0.264973 -0.771595 -0.570481 0.265623 -0.773462 -0.567649
0.239782 -0.70439 -0.658176 0.240696 -0.706878 -0.655206
0.14317 -0.712267 -0.683285 0.143732 -0.715062 -0.680275
0.221346 -0.689298 0.682412 0.22219 -0.692001 0.679403
0.238652 -0.759568 0.593927 0.239261 -0.761635 0.591058
0.193627 -0.645091 -0.731996 0.194597 -0.648196 -0.728993
0.308994 -0.791563 0.518518 0.309591 -0.793108 0.515851
0.2742 -0.845756 0.440014 0.274533 -0.846916 0.437648
0.196187 -0.830009 0.510915 0.19653 -0.831586 0.508277
0.172372 -0.508603 -0.840147 0.17376 -0.512652 -0.837383
0.118145 -0.442278 -0.88269 0.11946 -0.446828 -0.880227
0.349696 -0.902323 0.231797 0.349813 -0.902661 0.230443
0.24616 -0.891277 0.366371 0.246373 -0.892075 0.36431
0.343086 -0.86731 0.34914 0.343367 -0.868025 0.347169
0.219905 -0.948304 0.210847 0.219967 -0.948582 0.209603
0.0787408 -0.30972 -0.942656 0.0802188 -0.314915 -0.940808
0.367833 -0.916069 0.120226 0.367885 -0.916202 0.11951
0.269752 -0.954048 0.0399093 0.269761 -0.954095 0.0396718
0.197397 -0.969747 0.100931 0.197421 -0.969864 0.100331
0.329887 -0.926757 -0.12826 0.329945 -0.926898 -0.127497
0.117691 -0.324755 0.934824 0.119412 -0.32978 0.932841
0.0758923 -0.522744 -0.84502 0.0765326 -0.527033 -0.842291
0.0342213 -0.392632 -0.91676 0.0346866 -0.397713 -0.914537
0.150334 -0.930963 0.310519 0.150424 -0.931589 0.308752
0.122689 -0.961429 0.219063 0.122718 -0.961741 0.217776
0.0133159 -0.965232 0.242037 0.0133189 -0.965627 0.240629
0.0606592 -0.981581 0.126344 0.0606591 -0.981731 0.125592
0.0529283 -0.994084 0.00713176 0.0529282 -0.994093 0.00708931
0.175573 -0.978816 -0.0395029 0.175582 -0.978863 -0.0392677
0.0496318 -0.982157 -0.131526 0.0496433 -0.982312 -0.130743
0.0360734 -0.257404 0.960805 0.0367269 -0.262981 0.959271
0.170231 -0.938377 -0.279618 0.17033 -0.938894 -0.278013
0.102404 -0.966965 -0.207398 0.102437 -0.967236 -0.206172
0.0952807 -0.929332 -0.333771 0.095372 -0.930039 -0.331881
0.0227535 -0.956462 -0.267886 0.0227752 -0.956944 -0.266343
0.0442088 -0.384536 0.920562 0.0447864 -0.389647 0.918366
0.145676 -0.891852 -0.41576 0.145855 -0.892909 -0.413487
0.0654036 -0.848547 -0.511569 0.0655506 -0.850152 -0.508929
0.119786 -0.633414 0.757903 0.120425 -0.636864 0.754946
0.103864 -0.553162 0.825051 0.104627 -0.557231 0.822214
0.06994 -0.693364 0.712732 0.07024 -0.696422 0.709694
0.125656 -0.775851 -0.608261 0.126037 -0.778089 -0.605369
0.0110711 -0.80074 -0.591685 0.0111186 -0.802883 -0.588819
0.0453883 -0.74136 -0.659921 0.045583 -0.744013 -0.656948
0.140115 -0.733051 0.658678 0.14061 -0.735665 0.655707
0.142193 -0.790701 0.588182 0.142543 -0.792787 0.585321
0.0186208 -0.761364 0.638759 0.0186626 -0.763869 0.635819
0.047673 -0.817863 0.566429 0.0477801 -0.819806 0.563603
0.10501 -0.603995 -0.783241 0.105679 -0.60768 -0.780329
0.0261615 -0.677672 -0.729149 0.0263366 -0.680897 -0.72614
0.0939435 -0.863593 0.478161 0.0940507 -0.865012 0.475649
0.162712 -0.893452 0.409628 0.162881 -0.894475 0.407378
0.0290636 -0.908851 0.405444 0.0290913 -0.909864 0.403211
-0.066801 -0.49476 0.860457 -0.0674478 -0.499214 0.857836
-0.0947575 -0.905388 -0.399818 -0.0948485 -0.906363 -0.397606
-0.0175559 -0.883214 -0.455527 -0.0175729 -0.884514 -0.453102
-0.081627 -0.840317 -0.523976 -0.0817682 -0.841994 -0.521288
-0.0195125 -0.638061 0.762194 -0.0196603 -0.6416 0.759245
-0.00777285 -0.569443 0.819456 -0.00783173 -0.573529 0.816609
-0.105979 -0.575668 0.80641 -0.106718 -0.579564 0.80354
-0.07002 -0.7057 -0.700418 -0.070306 -0.708655 -0.697381
-0.0507726 -0.709775 0.697762 -0.0509907 -0.712716 0.694729
-0.0781539 -0.770712 0.620224 -0.07845 -0.77305 0.617313
-0.0852469 -0.627742 -0.765349 -0.0856518 -0.631285 -0.762406
-0.0239481 -0.558413 -0.827201 -0.0241139 -0.562561 -0.824368
-0.0123023 -0.856411 0.506641 -0.0123301 -0.858 0.50402
-0.159807 -0.884 0.427846 -0.160016 -0.885123 0.425526
-0.0750594 -0.913633 0.388022 -0.0751381 -0.914542 0.385855
-0.124536 -0.844706 0.507858 -0.124807 -0.846279 0.505232
-0.0399422 -0.45494 -0.883155 -0.0402445 -0.459673 -0.880695
-0.0672363 -0.94234 0.299996 -0.0673009 -0.942931 0.298284
-0.159387 -0.927158 0.320123 -0.159512 -0.927814 0.318306
-0.137292 -0.956538 0.230446 -0.137349 -0.956886 0.229099
-0.0211451 -0.301064 -0.948007 -0.0214327 -0.306526 -0.946252
-0.0560308 -0.977943 0.16791 -0.0560441 -0.978141 0.166911
-0.0736617 -0.991911 0.00846188 -0.0736638 -0.991921 0.00841151
-0.138204 -0.977876 0.0864207 -0.138224 -0.977976 0.0859062
-0.0272872 -0.17529 0.982471 -0.0281095 -0.180572 0.981387
-0.0432473 -0.979904 -0.16079 -0.0432495 -0.980094 -0.159833
-0.193866 -0.980077 -0.00841142 -0.193867 -0.980087 -0.00836135
-0.130122 -0.97724 -0.100955 -0.130131 -0.977359 -0.100354
-0.0497259 -0.336154 0.936508 -0.0505418 -0.341427 0.934554
-0.00117357 -0.929047 -0.365266 -0.00117398 -0.929873 -0.363211
-0.0843087 -0.951734 -0.263484 -0.0843286 -0.952202 -0.261963
-0.166316 -0.927905 -0.315412 -0.166426 -0.928545 -0.313619
-0.260915 -0.904284 0.310952 -0.261112 -0.904885 0.309183
-0.362094 -0.874939 0.30668 -0.362331 -0.875513 0.304932
-0.0757574 -0.371684 -0.924846 -0.0767982 -0.376792 -0.92269
-0.120157 -0.290946 -0.944468 -0.122233 -0.295982 -0.942651
-0.242237 -0.947208 0.188188 -0.242292 -0.947422 0.187068
-0.231618 -0.960692 0.0879894 -0.231648 -0.960791 0.0874656
-0.330847 -0.929619 0.0974763 -0.330892 -0.929726 0.096896
-0.0303709 -0.121958 -0.987577 -0.031286 -0.125633 -0.986809
-0.305093 -0.945584 -0.0178837 -0.305097 -0.945605 -0.0177772
-0.24432 -0.956353 -0.0927254 -0.244342 -0.956461 -0.0921734
-0.330469 -0.925354 -0.140236 -0.330522 -0.925511 -0.139401
-0.253694 -0.908011 -0.30608 -0.253831 -0.908613 -0.304335
-0.191465 -0.959289 -0.203375 -0.191516 -0.959543 -0.20217
-0.348333 -0.894358 -0.258356 -0.348487 -0.894781 -0.256862
-0.0943686 -0.411626 0.902151 -0.0954983 -0.416451 0.899825
-0.163657 -0.510717 0.840419 -0.164981 -0.514789 0.837657
-0.217003 -0.884662 -0.401237 -0.217234 -0.885623 -0.39902
-0.171543 -0.839283 -0.507681 -0.171859 -0.840848 -0.505056
-0.310951 -0.839374 -0.431439 -0.311323 -0.840472 -0.429106
-0.262829 -0.80261 -0.523838 -0.263336 -0.804213 -0.521151
-0.149432 -0.65548 0.734377 -0.15021 -0.658667 0.731378
-0.217305 -0.566266 0.788532 -0.218693 -0.569797 0.78563
-0.150147 -0.734562 -0.654683 -0.150669 -0.737141 -0.651718
-0.25424 -0.739286 -0.612151 -0.254924 -0.741476 -0.609253
-0.248675 -0.678272 0.685618 -0.249695 -0.680947 0.682604
-0.168228 -0.738907 0.643166 -0.168811 -0.741375 0.640219
-0.21316 -0.787456 0.570312 -0.213693 -0.789357 0.56748
-0.166548 -0.662578 -0.724679 -0.167313 -0.665674 -0.721662
-0.264151 -0.869217 0.403292 -0.264453 -0.870169 0.401067
-0.299069 -0.805159 0.499476 -0.299633 -0.806601 0.496882
-0.11215 -0.513309 -0.847117 -0.113076 -0.517578 -0.844402
-0.152316 -0.430486 -0.883423 -0.153826 -0.434985 -0.880965
-0.419719 -0.815556 -0.387044 -0.420133 -0.816364 -0.384881
-0.500373 -0.75097 -0.42265 -0.50099 -0.751897 -0.420351
-0.465374 -0.715136 -0.513076 -0.466258 -0.716502 -0.51043
-0.286099 -0.606361 0.735205 -0.287556 -0.609306 0.732207
-0.357164 -0.537755 0.757475 -0.359107 -0.540676 0.754517
-0.335287 -0.670503 -0.651174 -0.33639 -0.672853 -0.648214
-0.376898 -0.731521 -0.561267 -0.377767 -0.733217 -0.558449
-0.40521 -0.607126 -0.679251 -0.406776 -0.609473 -0.676247
-0.36569 -0.67028 0.633865 -0.366928 -0.672409 0.630933
-0.353443 -0.746922 0.558174 -0.354252 -0.748623 0.555361
-0.233196 -0.522213 -0.816969 -0.234812 -0.525941 -0.814118
-0.287641 -0.587425 -0.748377 -0.289107 -0.590504 -0.745403
-0.354482 -0.845765 0.394773 -0.354855 -0.846643 0.392581
-0.384084 -0.788857 0.462889 -0.384704 -0.790042 0.460435
-0.461042 -0.711165 0.523499 -0.46197 -0.712574 0.520813
-0.449638 -0.793008 0.397915 -0.450122 -0.793847 0.39571
-0.253471 -0.423501 -0.86365 -0.255705 -0.427445 -0.861052
-0.518725 -0.786228 0.32145 -0.519097 -0.786787 0.319625
-0.434759 -0.86611 0.219196 -0.434909 -0.866385 0.217908
-0.102241 -0.195483 -0.972724 -0.104824 -0.200628 -0.971397
-0.428008 -0.888082 0.104112 -0.428067 -0.888189 0.103493
-0.517717 -0.846177 0.0497086 -0.51775 -0.846227 0.0494127
-0.398909 -0.914802 0.00363002 -0.398912 -0.914807 0.00360841
-0.511216 -0.838601 0.149143 -0.511314 -0.838748 0.148256
-0.0345703 -0.0745536 0.99188 -0.035612 -0.0768002 0.991378
-0.476987 -0.866072 -0.0665849 -0.477018 -0.866145 -0.0661885
-0.5455 -0.821302 -0.139915 -0.545591 -0.82144 -0.139082
-0.418128 -0.888114 -0.151329 -0.418198 -0.88828 -0.150428
-0.119559 -0.2417 0.957812 -0.122184 -0.246623 0.956226
-0.142824 -0.329983 0.930736 -0.144982 -0.334793 0.928682
-0.496771 -0.833162 -0.218617 -0.49692 -0.833436 -0.217332
-0.423997 -0.84621 -0.294137 -0.424232 -0.846735 -0.292455
-0.500003 -0.794511 -0.326487 -0.500364 -0.795096 -0.324636
-0.199192 -0.427268 0.875608 -0.201231 -0.431461 0.873095
-0.28965 -0.462688 0.835928 -0.291904 -0.466283 0.833134
-0.197941 -0.235766 -0.946137 -0.201333 -0.240022 -0.944349
-0.593653 -0.782511 0.139624 -0.593756 -0.782639 0.138793
-0.594177 -0.795756 0.0317784 -0.594204 -0.795783 0.0315892
-0.668232 -0.72887 0.0799673 -0.668299 -0.728937 0.0794912
-0.595935 -0.789679 -0.0683248 -0.595981 -0.789746 -0.067918
-0.682491 -0.724452 -0.0225181 -0.682507 -0.724475 -0.022384
-0.608802 -0.764889 -0.180553 -0.608933 -0.765057 -0.179478
-0.671175 -0.720299 -0.128518 -0.671276 -0.720411 -0.127753
-0.131535 -0.147589 0.979755 -0.135435 -0.151941 0.978549
-0.232083 -0.296237 0.925286 -0.235296 -0.300322 0.923138
-0.56947 -0.735181 -0.349093 -0.569927 -0.735797 -0.347123
-0.654489 -0.663627 -0.353653 -0.65504 -0.664186 -0.351659
-0.624741 -0.718231 -0.27635 -0.625056 -0.718635 -0.274762
-0.291438 -0.374905 0.873472 -0.294385 -0.378484 0.870944
-0.559958 -0.678802 -0.456894 -0.560751 -0.679837 -0.454464
-0.602491 -0.610735 -0.505085 -0.603601 -0.611863 -0.502469
-0.376678 -0.449866 0.803581 -0.37924 -0.452839 0.800706
-0.466458 -0.514135 0.715644 -0.468548 -0.51643 0.712611
-0.509839 -0.64839 -0.559016 -0.511005 -0.649876 -0.556202
-0.49965 -0.578196 -0.633368 -0.50121 -0.580093 -0.630437
-0.408416 -0.60409 0.679726 -0.409999 -0.606428 0.676721
-0.485723 -0.637611 0.587951 -0.487034 -0.639264 0.585091
-0.357941 -0.529811 -0.762422 -0.359927 -0.532758 -0.759473
-0.439777 -0.465369 -0.760689 -0.442173 -0.467958 -0.757737
-0.330907 -0.456552 -0.823264 -0.333304 -0.4599 -0.820424
-0.543106 -0.653256 0.514117 -0.544169 -0.654488 0.511466
-0.541298 -0.720099 0.419136 -0.541978 -0.72095 0.41685
-0.618036 -0.619185 0.474266 -0.61903 -0.620181 0.471769
-0.309615 -0.309902 -0.894267 -0.313066 -0.313358 -0.891885
-0.564045 -0.784394 0.234479 -0.564274 -0.78468 0.233111
-0.599308 -0.725026 0.312396 -0.599735 -0.7255 0.310618
-0.644562 -0.721104 0.227339 -0.644795 -0.721355 0.226008
-0.576636 -0.548844 -0.596633 -0.57821 -0.550356 -0.593759
-0.518962 -0.497159 -0.691366 -0.521044 -0.499193 -0.688343
-0.602668 -0.464418 -0.637572 -0.604606 -0.465979 -0.634634
-0.558428 -0.504067 0.648647 -0.560361 -0.505768 0.645691
-0.628647 -0.50959 0.577897 -0.630238 -0.510854 0.575052
-0.489527 -0.383626 -0.774664 -0.492352 -0.385941 -0.771737
-0.403104 -0.392712 -0.825002 -0.406055 -0.395618 -0.822165
-0.704293 -0.494527 0.497885 -0.705563 -0.495399 0.495297
-0.690294 -0.571131 0.42687 -0.691185 -0.571831 0.424554
-0.655074 -0.65157 0.381687 -0.6557 -0.652193 0.379547
-0.703875 -0.645541 0.269398 -0.704247 -0.645857 0.267847
-0.772559 -0.583115 0.224711 -0.772828 -0.583311 0.223394
-0.754147 -0.557424 0.325842 -0.754712 -0.557815 0.323994
-0.195363 -0.133292 -0.968158 -0.200083 -0.136528 -0.966752
-0.731345 -0.668534 0.0584934 -0.731401 -0.668575 0.0581451
-0.773678 -0.606279 0.127562 -0.773803 -0.606364 0.126802
-0.707948 -0.682291 0.153978 -0.708079 -0.682417 0.153061
-0.794668 -0.596497 0.0253397 -0.794693 -0.596514 0.0251888
-0.821916 -0.555199 -0.0777406 -0.821992 -0.555251 -0.0772777
-0.809751 -0.555701 -0.170435 -0.809917 -0.555815 -0.16942
-0.743909 -0.640031 -0.143885 -0.744033 -0.640148 -0.143028
-0.228035 -0.202278 0.947119 -0.232232 -0.205761 0.945349
-0.709185 -0.651138 -0.24404 -0.709475 -0.651415 -0.242622
-0.772621 -0.564318 -0.264052 -0.772988 -0.56461 -0.262529
-0.323575 -0.252434 0.908073 -0.32757 -0.255461 0.905789
-0.389367 -0.34071 0.850679 -0.392713 -0.343556 0.84799
-0.744797 -0.534231 -0.391673 -0.745552 -0.534783 -0.389492
-0.661596 -0.603916 -0.429475 -0.662436 -0.604701 -0.427149
-0.655058 -0.521348 -0.537446 -0.656428 -0.522452 -0.534706
-0.461663 -0.426155 0.770177 -0.46435 -0.428573 0.767242
-0.549359 -0.43407 0.710134 -0.551754 -0.435957 0.707091
-0.0754573 -0.0323686 -0.991904 -0.0777311 -0.033344 -0.991403
-0.891504 -0.430576 -0.0609644 -0.891565 -0.430615 -0.0606014
-0.329785 -0.137989 0.931484 -0.334668 -0.140031 0.929443
-0.831806 -0.477421 -0.252796 -0.832172 -0.477648 -0.251331
-0.868428 -0.381917 -0.294938 -0.868954 -0.382157 -0.293252
-0.900502 -0.380167 -0.203969 -0.900741 -0.380273 -0.20276
-0.415365 -0.239388 0.871069 -0.419421 -0.24158 0.868524
-0.817483 -0.401616 -0.399892 -0.818357 -0.402061 -0.39768
-0.714841 -0.438863 -0.537059 -0.716332 -0.439801 -0.534321
-0.781353 -0.374345 -0.483962 -0.782654 -0.374998 -0.481428
-0.549003 -0.321011 0.763348 -0.552103 -0.322736 0.760401
-0.495531 -0.24644 0.831226 -0.499278 -0.248302 0.8284
-0.629534 -0.266511 0.725967 -0.632491 -0.26776 0.722953
-0.688978 -0.36378 -0.614778 -0.690997 -0.364912 -0.611876
-0.6059 -0.365362 -0.703574 -0.608464 -0.366915 -0.700532
-0.62338 -0.416182 0.655368 -0.625573 -0.417646 0.652401
-0.690769 -0.430247 0.574481 -0.69249 -0.431284 0.571642
-0.735952 -0.30927 0.595516 -0.737959 -0.310111 0.592644
-0.64788 -0.280696 -0.70711 -0.65066 -0.281901 -0.704062
-0.549666 -0.28879 -0.775392 -0.552861 -0.290576 -0.772467
-0.768164 -0.365255 0.513882 -0.769654 -0.365917 0.511233
-0.767432 -0.493701 0.401269 -0.768274 -0.49422 0.399052
-0.43717 -0.291539 -0.847537 -0.440813 -0.293968 -0.844825
-0.500593 -0.214167 -0.837084 -0.504498 -0.215866 -0.834299
-0.392145 -0.193938 -0.893575 -0.396463 -0.196155 -0.891189
-0.813499 -0.504595 0.263845 -0.813905 -0.504829 0.262323
-0.829762 -0.412434 0.360243 -0.830488 -0.412782 0.358215
-0.866453 -0.44196 0.20695 -0.866696 -0.44208 0.205726
-0.291046 -0.133197 -0.942587 -0.295892 -0.135585 -0.940738
-0.828941 -0.524806 0.1707 -0.829112 -0.524913 0.169684
-0.910462 -0.383673 0.115962 -0.910589 -0.383726 0.115272
-0.852257 -0.512902 0.0181584 -0.852278 -0.512911 0.0180503
-0.70229 -0.240102 0.660524 -0.704822 -0.240933 0.657549
-0.772921 -0.191558 0.59502 -0.775029 -0.192063 0.592148
-0.59397 -0.186444 -0.774057 -0.597425 -0.187619 -0.771129
-0.824405 -0.317163 0.454979 -0.825619 -0.317611 0.452555
-0.838696 -0.194339 0.496295 -0.840193 -0.194663 0.493713
-0.883892 -0.215399 0.403497 -0.884867 -0.215631 0.401271
-0.40012 -0.0976222 -0.907558 -0.40498 -0.0988343 -0.90527
-0.889911 -0.348047 0.272729 -0.89038 -0.348221 0.27116
-0.904385 -0.248191 0.322865 -0.905044 -0.248343 0.321032
-0.245317 -0.0523653 -0.963776 -0.250854 -0.0535742 -0.962293
-0.939103 -0.278959 0.158555 -0.939283 -0.279008 0.15761
-0.958604 -0.242023 0.0775543 -0.958694 -0.242041 0.0770925
-0.936928 -0.333143 -0.0193134 -0.93695 -0.333152 -0.0191984
-0.950015 -0.230761 -0.194762 -0.950238 -0.230815 -0.193602
-0.943706 -0.28387 -0.0990684 -0.943815 -0.283915 -0.0984784
-0.975039 -0.208451 -0.016519 -0.975059 -0.208458 -0.0164207
-0.242632 -0.0677113 0.963201 -0.248117 -0.0690669 0.961709
-0.904296 -0.299191 -0.274109 -0.904769 -0.299369 -0.272533
-0.866258 -0.322796 -0.371988 -0.867049 -0.323097 -0.369898
-0.933112 -0.187559 -0.290106 -0.933664 -0.187671 -0.288446
-0.894345 -0.224766 -0.377216 -0.895183 -0.224978 -0.375098
-0.461795 -0.136863 0.86974 -0.466228 -0.138086 0.867186
-0.831225 -0.275073 -0.465679 -0.832498 -0.275534 -0.463215
-0.862158 -0.179478 -0.462198 -0.863466 -0.179756 -0.459747
-0.548647 -0.155617 0.817202 -0.552554 -0.156693 0.814352
-0.644742 -0.1676 0.738501 -0.64796 -0.168409 0.735509
-0.785186 -0.210081 -0.574066 -0.787115 -0.210621 -0.571228
-0.760487 -0.30848 -0.568032 -0.762308 -0.309219 -0.565203
-0.701972 -0.20494 -0.673393 -0.704615 -0.205745 -0.670399
-0.972183 -0.155395 -0.127031 -0.972331 -0.155424 -0.126275
-0.98055 -0.0117482 -0.185722 -0.98077 -0.0117509 -0.184616
-0.99035 -0.0023739 -0.0955926 -0.990464 -0.00237437 -0.0950233
-0.965351 -0.102227 -0.212779 -0.96564 -0.102263 -0.211524
-0.920657 -0.0448699 -0.378736 -0.921526 -0.0449128 -0.376611
-0.400022 -0.0488323 0.912041 -0.405041 -0.0494125 0.909785
-0.530182 -0.0604339 0.841858 -0.534454 -0.0608913 0.839106
-0.823807 -0.1074 -0.550115 -0.825623 -0.107642 -0.547327
-0.871966 -0.0537879 -0.469894 -0.873337 -0.0539088 -0.467414
-0.604425 -0.0766452 0.78518 -0.608154 -0.0770571 0.782272
-0.682233 -0.033134 0.724842 -0.685421 -0.0332761 0.721826
-0.828549 -0.00964725 -0.557971 -0.830435 -0.00967332 -0.555158
-0.746244 -0.105792 -0.646722 -0.748774 -0.106199 -0.643769
-0.714643 -0.113542 0.684297 -0.71746 -0.113979 0.681285
-0.780006 -0.0833338 0.608277 -0.782264 -0.0835213 0.605385
-0.760266 -0.000959745 0.642216 -0.762803 -0.000961776 0.63927
-0.662893 -0.112532 -0.734296 -0.666128 -0.113093 -0.731297
-0.644103 -0.0112722 -0.757902 -0.647607 -0.0113574 -0.754945
-0.568947 -0.0904411 -0.813181 -0.572912 -0.0911256 -0.810324
-0.8383 -0.0935527 0.525553 -0.839983 -0.0937228 0.522859
-0.886626 -0.120645 0.430148 -0.887772 -0.120761 0.42782
-0.47744 -0.0441691 -0.870906 -0.482019 -0.0446955 -0.868359
-0.39462 -0.00657868 -0.917153 -0.399743 -0.00666812 -0.914932
-0.950356 -0.183614 0.235785 -0.950722 -0.183682 0.234409
-0.923696 -0.0574612 0.36463 -0.924515 -0.0575028 0.362578
-0.92603 -0.149644 0.327008 -0.926711 -0.149747 0.325154
-0.955065 -0.0571641 0.261317 -0.955526 -0.0571774 0.259808
-0.97371 -0.101247 0.165673 -0.973905 -0.101264 0.164686
-0.98082 -0.142304 0.0524225 -0.980883 -0.142304 0.0521103
-0.994713 -0.0415212 0.0121485 -0.994728 -0.0415212 0.0120762
-0.139426 -0.0205441 0.986068 -0.143628 -0.0211632 0.985207
-0.693515 0.0622265 -0.713231 -0.696582 0.0624937 -0.710194
-0.832994 0.00136628 0.552465 -0.834847 0.00136947 0.549668
-0.834553 0.0932377 0.532621 -0.836272 0.0934476 0.5299
-0.879914 0.00786574 0.463487 -0.881259 0.0078836 0.461031
-0.886978 0.132003 0.427397 -0.888101 0.132184 0.42508
-0.545711 0.0197273 -0.835701 -0.549947 0.0198766 -0.832906
-0.924761 0.0442483 0.36541 -0.925583 0.0442909 0.363354
-0.95164 0.0723084 0.26769 -0.952118 0.0723761 0.266148
-0.924202 0.150406 0.332784 -0.924901 0.150538 0.3309
-0.239137 0.0396745 -0.966239 -0.244756 0.0405545 -0.964799
-0.979434 0.0271831 0.18162 -0.979649 0.0271896 0.180538
-0.988325 0.0352093 0.0833196 -0.988423 0.0352176 0.0828235
-0.967918 0.166118 0.159606 -0.968104 0.166155 0.158656
-0.980712 0.154782 0.0410439 -0.98076 0.154791 0.0407995
-0.976671 0.0895515 -0.147309 -0.976844 0.0895615 -0.146432
-0.340691 0.0590162 0.934855 -0.345934 0.0599401 0.932872
-0.953687 0.102941 -0.250997 -0.954111 0.102965 -0.249542
-0.949385 0.006923 -0.296355 -0.949969 0.00692479 -0.294661
-0.925489 0.0885861 -0.348613 -0.926251 0.0886461 -0.346646
-0.432116 0.0447542 0.895101 -0.436949 0.0453628 0.892725
-0.533796 0.0533741 0.840298 -0.538053 0.0538211 0.837535
-0.896576 0.0336319 -0.427567 -0.897715 0.0336644 -0.425249
-0.844944 0.0726492 -0.516974 -0.846584 0.0727608 -0.514313
-0.620298 0.0370157 0.775357 -0.623948 0.0372959 0.772431
-0.763399 0.0209889 -0.635995 -0.765883 0.0210363 -0.633059
-0.770402 0.151582 -0.61179 -0.772661 0.152024 -0.608892
-0.711716 0.0614762 0.694112 -0.714625 0.0617402 0.691085
-0.771117 0.0966101 0.617515 -0.773431 0.0969427 0.614608
-0.931532 0.186511 -0.296122 -0.932105 0.186626 -0.29443
-0.886008 0.249604 -0.37976 -0.886848 0.24984 -0.377629
-0.861202 0.348591 -0.363208 -0.86196 0.348898 -0.361164
-0.403047 0.140878 0.89931 -0.407662 0.142592 0.896963
-0.485364 0.163873 0.853416 -0.489544 0.165323 0.850746
-0.85703 0.208077 -0.455817 -0.858297 0.208365 -0.453391
-0.829699 0.297748 -0.456049 -0.830932 0.298156 -0.453622
-0.793102 0.249318 -0.548316 -0.79484 0.24986 -0.545535
-0.578727 0.142819 0.796529 -0.582469 0.143773 0.793641
-0.632816 0.220169 0.735328 -0.635914 0.221273 0.732331
-0.708171 0.155108 -0.683842 -0.710963 0.155696 -0.680831
-0.731765 0.233912 -0.628189 -0.734088 0.234577 -0.625265
-0.709953 0.158436 0.680571 -0.712708 0.159058 0.677565
-0.736862 0.225403 0.62524 -0.739133 0.226165 0.622322
-0.803658 0.176821 0.564245 -0.805542 0.17725 0.561422
-0.580877 0.139847 -0.795544 -0.58464 0.1407 -0.792654
-0.524205 0.208978 -0.823716 -0.52804 0.210505 -0.820877
-0.611058 0.220776 -0.752354 -0.614321 0.221883 -0.749387
-0.772376 0.308073 0.553537 -0.7741 0.308763 0.550735
-0.841122 0.230647 0.472117 -0.84245 0.231054 0.469628
-0.829417 0.330496 0.438687 -0.830534 0.330946 0.436326
-0.500256 0.103304 -0.855205 -0.504624 0.104202 -0.852548
-0.420643 0.126175 -0.892558 -0.425314 0.127457 -0.890164
-0.930141 0.223935 0.264544 -0.930595 0.224063 0.263018
-0.889909 0.233794 0.382595 -0.890763 0.234018 0.38045
-0.891698 0.36778 0.248087 -0.892083 0.367939 0.246647
-0.930086 0.29984 0.18475 -0.930293 0.299908 0.18365
-0.959773 0.251796 0.0371995 -0.959814 0.251813 0.036978
-0.932928 0.324395 0.0842797 -0.93302 0.324433 0.0837778
-0.145481 0.0341163 -0.985242 -0.149864 0.0351443 -0.98433
-0.967786 0.218101 -0.0587536 -0.967855 0.218115 -0.0584038
-0.937346 0.320771 -0.0518752 -0.937407 0.320783 -0.0515663
-0.943226 0.258277 -0.179557 -0.94343 0.258331 -0.178488
-0.912672 0.360538 -0.174999 -0.912865 0.360614 -0.173957
-0.747548 0.394384 0.522249 -0.749018 0.395184 0.519568
-0.783347 0.434442 0.427398 -0.78433 0.435013 0.42508
-0.438597 0.233016 -0.861678 -0.442614 0.235069 -0.859066
-0.35497 0.210527 -0.906984 -0.359288 0.213049 -0.904692
-0.846964 0.377501 0.36454 -0.847713 0.377837 0.362489
-0.798897 0.485323 0.336594 -0.799505 0.485717 0.33469
-0.840645 0.459476 0.254993 -0.84102 0.459703 0.253516
-0.266737 0.139986 -0.948146 -0.271636 0.142416 -0.946393
-0.890077 0.419554 0.126815 -0.89021 0.419622 0.12606
-0.844405 0.512607 0.0902283 -0.844494 0.512667 0.089691
-0.816962 0.54572 0.177901 -0.817137 0.545837 0.176841
-0.904062 0.41799 0.00849615 -0.904072 0.417996 0.00844556
-0.837566 0.543101 0.00510925 -0.837571 0.543105 0.00507883
-0.106662 0.0687191 0.987484 -0.109876 0.0707899 0.986711
-0.865388 0.478151 -0.0671412 -0.865462 0.478182 -0.0667414
-0.871228 0.448367 -0.157842 -0.871396 0.448447 -0.156902
-0.827877 0.532585 -0.142862 -0.828019 0.532676 -0.142012
-0.882543 0.378527 -0.258996 -0.882962 0.378703 -0.257499
-0.815788 0.464034 -0.320493 -0.816375 0.464349 -0.318673
-0.414162 0.243431 0.870615 -0.418109 0.245817 0.868067
-0.794965 0.427679 -0.414129 -0.795908 0.428164 -0.411863
-0.777656 0.34206 -0.518702 -0.779182 0.342712 -0.516034
-0.736024 0.475666 -0.469325 -0.737185 0.476406 -0.466847
-0.535252 0.248838 0.801405 -0.538786 0.250507 0.798526
-0.68821 0.344728 -0.626604 -0.690384 0.345762 -0.623683
-0.710046 0.424057 -0.557237 -0.711658 0.425017 -0.554425
-0.621996 0.344789 -0.698068 -0.624582 0.346213 -0.695034
-0.675676 0.286138 0.673955 -0.678233 0.287224 0.67096
-0.70041 0.356358 0.606717 -0.702392 0.35743 0.603827
-0.630855 0.407373 0.65238 -0.633042 0.408802 0.649418
-0.561057 0.304342 -0.761062 -0.564195 0.30595 -0.75811
-0.722635 0.632672 -0.248404 -0.722963 0.632927 -0.246962
-0.791227 0.553538 -0.239062 -0.791543 0.553756 -0.237669
-0.673402 0.657676 -0.321926 -0.673885 0.658145 -0.320099
-0.738805 0.572765 -0.33289 -0.73938 0.573182 -0.331005
-0.30622 0.242352 0.918714 -0.310228 0.245544 0.916505
-0.435128 0.333572 0.834112 -0.438468 0.336144 0.831306
-0.680203 0.573133 -0.439146 -0.681147 0.573878 -0.436783
-0.646506 0.526995 -0.54314 -0.6479 0.52812 -0.540378
-0.541283 0.37638 0.745462 -0.544047 0.378339 0.742483
-0.508744 0.473581 0.715354 -0.511013 0.475699 0.712321
-0.451355 0.424218 0.777762 -0.454023 0.42677 0.774841
-0.635323 0.453037 -0.615505 -0.637228 0.454374 -0.612601
-0.555888 0.541536 -0.621947 -0.557599 0.543186 -0.619033
-0.578432 0.430313 -0.687002 -0.580755 0.432001 -0.683986
-0.578683 0.484574 0.644617 -0.580585 0.486265 0.641668
-0.676825 0.471486 0.561894 -0.678391 0.47259 0.559075
-0.505357 0.383571 -0.764602 -0.508225 0.385685 -0.761657
-0.460826 0.317421 -0.827595 -0.464263 0.319772 -0.824763
-0.675561 0.544768 0.47972 -0.676646 0.545703 0.477202
-0.642924 0.624752 0.431759 -0.643756 0.625567 0.429424
-0.736177 0.549861 0.385559 -0.736896 0.550402 0.383402
-0.351982 0.312082 -0.875956 -0.35554 0.315097 -0.873445
-0.744505 0.588301 0.285647 -0.744914 0.588662 0.28401
-0.175401 0.162092 -0.967292 -0.179625 0.165915 -0.965871
-0.786397 0.596 0.0937877 -0.786481 0.596072 0.0932292
-0.707662 0.680154 0.170059 -0.707805 0.680296 0.169046
-0.726572 0.671515 0.076835 -0.726637 0.67158 0.0763774
-0.756536 0.644726 -0.0139125 -0.75655 0.644736 -0.0138296
-0.758008 0.621669 -0.151536 -0.758149 0.621779 -0.150634
-0.710013 0.687629 -0.103137 -0.710102 0.687713 -0.102523
-0.236476 0.186305 0.948219 -0.240667 0.189815 0.946468
-0.361141 0.406898 -0.836439 -0.363962 0.410066 -0.833649
-0.237125 0.32013 -0.91472 -0.240165 0.324207 -0.912483
-0.649661 0.670904 0.345166 -0.650184 0.671448 0.343217
-0.575937 0.746234 0.307201 -0.576295 0.746742 0.305451
-0.546141 0.809581 0.207609 -0.546295 0.809809 0.206381
-0.64067 0.723331 0.229815 -0.640889 0.723604 0.228471
-0.631009 0.754833 0.116124 -0.63109 0.754944 0.115432
-0.596073 0.794363 0.030486 -0.596094 0.794394 0.0303044
-0.0843047 0.122078 -0.985368 -0.0868451 0.125757 -0.984463
-0.668194 0.736779 -0.0178301 -0.66821 0.736795 -0.017724
-0.630122 0.756062 -0.11218 -0.630215 0.756157 -0.111512
-0.566724 0.813557 -0.0690669 -0.566773 0.813623 -0.0686555
-0.203067 0.292975 0.931665 -0.206074 0.297327 0.929628
-0.652857 0.719645 -0.213643 -0.653057 0.719862 -0.212384
-0.550042 0.788716 -0.25284 -0.550297 0.789064 -0.251375
-0.597035 0.727002 -0.31211 -0.59746 0.727478 -0.310334
-0.276526 0.333029 0.895939 -0.279571 0.336842 0.893569
-0.610207 0.614061 -0.491048 -0.611268 0.615126 -0.488487
-0.599758 0.674221 -0.416086 -0.60048 0.675015 -0.413812
-0.508954 0.699958 -0.486979 -0.509836 0.701139 -0.484433
-0.362918 0.461031 0.803662 -0.365299 0.464155 0.800787
-0.411408 0.522145 0.739337 -0.413436 0.524778 0.736347
-0.528173 0.632472 -0.559841 -0.52939 0.633924 -0.557025
-0.446438 0.596604 -0.657278 -0.448043 0.5987 -0.654308
-0.511985 0.55544 0.645324 -0.513693 0.557334 0.642374
-0.50185 0.637316 0.575703 -0.503086 0.63891 0.572862
-0.47581 0.504601 -0.716829 -0.477952 0.506867 -0.713799
-0.380342 0.512893 -0.761487 -0.382497 0.515691 -0.758536
-0.585165 0.606389 0.532064 -0.586367 0.607638 0.529345
-0.51599 0.69338 0.488147 -0.516849 0.694589 0.485596
-0.5779 0.696978 0.409084 -0.578546 0.697783 0.406836
-0.456835 0.764717 -0.438442 -0.457465 0.765738 -0.436082
-0.330698 0.791323 -0.506112 -0.331311 0.792788 -0.503492
-0.413556 0.740834 -0.516391 -0.414383 0.742251 -0.513732
-0.290296 0.52472 0.792949 -0.292094 0.528095 0.790055
-0.255508 0.600057 0.751682 -0.256854 0.603235 0.748714
-0.41461 0.675493 -0.600001 -0.415778 0.677365 -0.597122
-0.33123 0.671614 -0.652315 -0.332416 0.673929 -0.649354
-0.351165 0.615759 0.701123 -0.352635 0.618346 0.698085
-0.341232 0.754693 0.556831 -0.342004 0.756402 0.55402
-0.310962 0.684942 0.649621 -0.312005 0.687312 0.646663
-0.350168 0.590472 -0.721855 -0.351791 0.593186 -0.718833
-0.294504 0.507407 -0.803904 -0.296536 0.510773 -0.80103
-0.26199 0.631972 -0.725951 -0.263221 0.634939 -0.722937
-0.426283 0.72354 0.533785 -0.427159 0.725043 0.531059
-0.247119 0.413672 -0.869914 -0.249523 0.417601 -0.86736
-0.15421 0.372124 -0.913117 -0.156158 0.376824 -0.910869
-0.499136 0.805094 0.296922 -0.499434 0.805597 0.295226
-0.440242 0.807312 0.382406 -0.440663 0.808086 0.380261
-0.432835 0.874763 0.196922 -0.43294 0.874975 0.19575
-0.139748 0.276967 -0.94543 -0.142327 0.281749 -0.94363
-0.548301 0.82337 0.107825 -0.548372 0.823477 0.107182
-0.494472 0.863817 0.00278689 -0.494473 0.863821 0.00277029
-0.446507 0.879678 0.0907465 -0.446548 0.879778 0.090206
-0.0843306 0.164732 0.981687 -0.0868718 0.169696 0.980556
-0.391858 0.918958 -0.000145082 -0.391858 0.918959 -0.000144218
-0.429143 0.889123 -0.0892782 -0.429195 0.889215 -0.0887464
-0.469063 0.857662 -0.180364 -0.469167 0.857848 -0.17929
-0.493891 0.788712 -0.352969 -0.49432 0.789366 -0.350979
-0.3768 0.845973 -0.368526 -0.377141 0.846736 -0.366455
-0.42025 0.855135 -0.273915 -0.420495 0.855575 -0.27234
-0.245602 0.441159 0.857278 -0.247708 0.445094 0.854635
-0.0430137 0.21522 -0.973382 -0.0441493 0.220898 -0.972066
-0.352762 0.920175 0.12477 -0.352813 0.920314 0.124027
-0.250236 0.953547 0.102602 -0.250261 0.953666 0.101991
-0.30419 0.94471 0.0290854 -0.304198 0.944745 0.0289122
-0.367771 0.910374 -0.176015 -0.367851 0.910566 -0.174967
-0.268116 0.952405 -0.0607908 -0.268145 0.952473 -0.0604286
-0.113111 0.355218 0.926344 -0.114676 0.360186 0.924214
-0.254149 0.939755 -0.205018 -0.254223 0.940009 -0.203804
-0.319998 0.892788 -0.290579 -0.320204 0.893313 -0.288916
-0.211154 0.923596 -0.297583 -0.211295 0.924166 -0.295884
-0.248256 0.887603 -0.376 -0.24849 0.88843 -0.373889
-0.125945 0.488151 0.857896 -0.127028 0.492493 0.855258
-0.300736 0.840507 -0.434977 -0.301149 0.841613 -0.43263
-0.223137 0.827959 -0.499896 -0.223564 0.829445 -0.4973
-0.199475 0.53387 0.818365 -0.200891 0.537685 0.815516
-0.153933 0.641402 0.744409 -0.154701 0.64469 0.741428
-0.277933 0.751738 -0.589139 -0.278681 0.753725 -0.586277
-0.179736 0.779475 -0.591542 -0.180256 0.781551 -0.588676
-0.232232 0.707141 -0.657637 -0.233121 0.709632 -0.654667
-0.143167 0.71655 -0.678268 -0.143719 0.719309 -0.675266
-0.220901 0.691012 0.680562 -0.221735 0.693703 0.677556
-0.232732 0.783161 0.568387 -0.23328 0.785043 0.565558
-0.201941 0.562424 -0.795241 -0.203301 0.56603 -0.792352
-0.143948 0.6397 -0.748142 -0.144735 0.643019 -0.745168
-0.299933 0.812073 0.486566 -0.300426 0.81346 0.484022
-0.339291 0.850994 0.395071 -0.339631 0.851886 0.392877
-0.248982 0.870946 0.408459 -0.249253 0.871939 0.406214
-0.179921 0.476673 -0.85538 -0.181512 0.480833 -0.852724
-0.328464 0.884054 0.310124 -0.328675 0.884648 0.308359
