ply
format ascii 1.0
comment Created by Open3D
element vertex 250
property double x
property double y
property double z
property double nx
property double ny
property double nz
end_header
0.481897 0.5 0.492833 0.242897 0.719691 0.490344
-0.0147697 0.5 0.471883 0 0.970637 0.0708874
0.248993 -0.225225 -0.5 0 0 -1
0.101903 0.5 0.111717 0 1 0
0.118112 -0.494826 -0.5 0 -0.590039 -0.755598
-0.378207 -0.496526 -0.5 0 -0.6285 -0.739667
-0.400748 0.405475 -0.5 0 0 -1
0.478973 0.375824 -0.5 0.231325 0 -0.904182
0.249128 0.387172 -0.5 0 0 -1
0.101717 0.12714 -0.5 0 0 -1
0.392726 -0.5 -0.00529135 0 -1 0
0.153073 -0.5 0.0940288 0 -1 0
0.490726 0.5 -0.379776 0.497255 0.79403 0
-0.398935 0.5 -0.405105 0 1 0
-0.267112 0.5 0.362195 0 1 0
-0.5 -0.402724 -0.00308905 -1 0 0
-0.145956 0.5 0.489983 0 0.800991 0.48045
0.5 0.00173854 0.345173 1 0 0
0.15404 -0.5 0.361838 0 -1 0
-0.374042 -0.5 -0.0180138 0 -1 0
-0.364146 0.00183761 0.5 0 0 1
-0.369663 -0.366703 0.5 0 0 1
-0.372771 -0.5 0.483941 0 -0.857619 0.343737
-0.5 0.310056 0.371516 -1 0 0
0.5 -0.302417 0.491627 0.785585 0 0.517644
-0.0863266 -0.367339 -0.5 0 0 -1
0.0761592 -0.5 -0.150246 0 -1 0
0.209426 -0.5 0.499775 0 -0.709219 0.702007
0.5 0.00920865 -0.210242 1 0 0
-0.5 -0.209341 -0.0901129 -1 0 0
-0.5 -0.0878621 0.300535 -1 0 0
-0.5 -0.257298 0.0350142 -1 0 0
-0.5 0.360738 -0.341782 -1 0 0
-0.5 0.183504 -0.198198 -1 0 0
0.302338 0.5 -0.318312 0 1 0
0.0468125 0.5 -0.337693 0 1 0
0.184327 0.5 -0.208819 0 1 0
0.5 0.216575 0.169904 1 0 0
0.5 0.208155 -0.323476 1 0 0
0.5 0.0880565 -0.396348 1 0 0
0.259032 -0.5 0.0327265 0 -1 0
0.320674 -0.5 0.281315 0 -1 0
-0.480987 -0.5 -0.443774 -0.276882 -0.885312 0
-0.25735 0.445441 -0.5 0 0 -1
-0.132382 0.468685 -0.5 0 0 -1
-0.468666 -0.0524324 -0.5 0 0 -1
-0.133036 -0.0416799 -0.5 0 0 -1
0.327605 0.215087 0.5 0 0 1
0.0499245 -0.16159 -0.5 0 0 -1
-0.496821 -0.5 0.0623142 -0.635179 -0.7369 0
0.5 -0.175963 0.057818 1 0 0
0.5 -0.122271 0.412681 1 0 0
0.295647 0.5 0.159699 0 1 0
0.490248 0.5 0.0446439 0.48645 0.798506 0
-0.163013 -0.5 0.411905 0 -1 0
0.0661224 0.255135 0.5 0 0 1
0.415112 0.253354 -0.5 0 0 -1
-0.158723 -0.5 -0.323812 0 -1 0
0.5 -0.476838 -0.339734 0.924191 -0.183019 0
0.5 0.280284 -0.0916134 1 0 0
0.5 0.0877073 0.226154 1 0 0
0.16243 0.5 -0.323698 0 1 0
-0.5 0.186719 -0.0794126 -1 0 0
0.5 0.00163714 -0.0645874 1 0 0
-0.499947 -0.5 -0.0918767 -0.705916 -0.7076 0
0.5 -0.425958 0.483965 0.857397 0 0.344274
0.403548 0.5 0.385343 0 1 0
-0.478069 0.102991 0.5 -0.210871 0 0.912655
0.5 0.117577 -0.00399241 1 0 0
-0.113012 0.5 -0.0166638 0 1 0
-0.5 -0.0987147 -0.00332907 -1 0 0
-0.5 -0.0958893 -0.289856 -1 0 0
-0.5 -0.343478 -0.106347 -1 0 0
-0.5 0.489705 -0.350289 -0.803594 0.474166 0
-0.5 0.134585 -0.370176 -1 0 0
-0.284754 0.5 -0.347077 0 1 0
0.5 0.32141 0.214352 1 0 0
0.5 0.344373 0.416351 1 0 0
0.5 0.331607 -0.289101 1 0 0
0.5 -0.146913 -0.312856 1 0 0
0.102666 -0.5 0.202806 0 -1 0
0.302845 -0.5 -0.372184 0 -1 0
-0.380973 -0.5 -0.345118 0 -1 0
-0.130874 -0.5 -0.0512455 0 -1 0
0.212117 0.0974637 -0.5 0 0 -1
0.135027 0.296104 -0.5 0 0 -1
-0.354254 0.115018 -0.5 0 0 -1
-0.0960067 0.270193 -0.5 0 0 -1
-0.307817 -0.394959 -0.5 0 0 -1
-0.172519 0.370547 0.5 0 0 1
0.35252 0.00639272 0.5 0 0 1
0.288553 0.328015 0.5 0 0 1
0.0494549 0.370359 0.5 0 0 1
0.349644 -0.406063 0.5 0 0 1
0.318858 -0.147555 0.5 0 0 1
-0.167562 -0.13469 0.5 0 0 1
-0.384674 -0.5 0.12681 0 -1 0
-0.142716 -0.5 0.186048 0 -1 0
0.5 -0.375439 0.23257 1 0 0
-0.5 0.393457 0.141877 -1 0 0
-0.5 0.204271 0.179299 -1 0 0
-0.5 0.185185 0.388158 -1 0 0
-0.5 0.0355082 0.262887 -1 0 0
-0.5 0.0535799 0.382085 -1 0 0
-0.5 0.0434692 0.0720432 -1 0 0
-0.5 0.40102 0.00474074 -1 0 0
0.199975 0.5 0.263146 0 1 0
0.14715 0.5 0.0035476 0 1 0
0.5 -0.20322 0.273193 1 0 0
0.5 -0.0158308 0.142311 1 0 0
0.5 -0.388022 0.0937675 1 0 0
0.5 -0.263438 0.154685 1 0 0
-0.0897324 -0.5 0.308819 0 -1 0
-0.0132069 -0.5 0.396458 0 -1 0
-0.0212201 -0.5 0.195926 0 -1 0
-0.269016 -0.5 0.0479483 0 -1 0
-0.275155 -0.5 0.193869 0 -1 0
0.272522 -0.0542627 -0.5 0 0 -1
0.405118 -0.00464749 -0.5 0 0 -1
0.149717 -0.0132825 -0.5 0 0 -1
0.00907863 -0.462588 -0.5 0 0 -1
0.0123473 -0.296964 -0.5 0 0 -1
-0.333438 -0.168299 0.5 0 0 1
-0.12585 -0.256843 0.5 0 0 1
-0.132339 -0.371472 0.5 0 0 1
0.232163 -0.218054 0.5 0 0 1
0.348152 0.426139 0.5 0 0 1
0.489126 0.0483162 0.5 0.461059 0 0.809023
-0.308644 0.298237 0.5 0 0 1
-0.376102 0.490459 0.5 0 0.491226 0.796528
-0.0599541 0.296591 0.5 0 0 1
-0.0279001 0.13672 0.5 0 0 1
-0.143125 0.180301 0.5 0 0 1
-0.180208 -0.16523 -0.5 0 0 -1
-0.364323 -0.273601 -0.5 0 0 -1
-0.200464 0.349131 -0.5 0 0 -1
-0.319022 0.249294 -0.5 0 0 -1
0.128307 0.420851 -0.5 0 0 -1
0.0250791 0.239034 -0.5 0 0 -1
-0.152823 -0.5 -0.197989 0 -1 0
-0.00338248 -0.5 -0.0289704 0 -1 0
-0.22481 -0.5 -0.482461 0 -0.871493 -0.310243
-0.110739 -0.5 -0.499973 0 -0.707357 -0.706502
-0.276509 -0.5 -0.259564 0 -1 0
0.328905 -0.5 -0.494446 0 -0.759158 -0.581444
0.483643 -0.5 -0.476524 0.304712 -0.828137 -0.143619
0.159257 -0.5 -0.354735 0 -1 0
0.493077 -0.5 0.104864 0.550458 -0.771993 0
0.471117 -0.5 0.239533 0.0535699 -0.977811 0
0.242313 -0.5 0.186514 0 -1 0
0.5 -0.212769 -0.210125 1 0 0
0.5 -0.0297546 -0.339236 1 0 0
0.5 -0.276686 -0.498939 0.71705 0 -0.683101
0.5 -0.303814 -0.301843 1 0 0
0.5 0.369173 -0.165099 1 0 0
0.5 0.493966 -0.139162 0.763662 0.570572 0
0.5 0.346092 0.08721 1 0 0
0.5 0.450182 0.153319 1 0 0
0.228916 0.5 -0.492149 0 0.780695 -0.529449
0.0248884 0.5 -0.498765 0 0.718683 -0.67916
0.48509 0.5 -0.497898 0.310617 0.647988 -0.600421
-0.359128 0.5 -0.17474 0 1 0
-0.412113 0.5 -0.0675032 0 1 0
-0.355177 0.5 0.276562 0 1 0
-0.463323 0.5 0.342391 0 1 0
-0.399252 0.5 0.135224 0 1 0
-0.244776 0.5 0.0416492 0 1 0
-0.5 0.00510178 -0.0562714 -1 0 0
-0.5 0.241474 -0.493635 -0.766765 0 -0.563079
-0.5 0.025595 -0.402332 -1 0 0
-0.5 0.0281888 -0.282153 -1 0 0
-0.5 0.491891 -0.495713 -0.628821 0.445342 -0.531809
-0.5 -0.346911 -0.222905 -1 0 0
-0.5 -0.491419 -0.203798 -0.787528 -0.512952 0
-0.5 -0.294472 -0.472774 -0.962288 0 -0.0910457
-0.5 -0.401484 -0.366704 -1 0 0
-0.5 -0.163219 -0.48929 -0.807488 0 -0.464764
-0.5 -0.197306 -0.358443 -1 0 0
-0.5 -0.494247 0.465238 -0.761032 -0.57692 0
-0.5 -0.348609 0.123778 -1 0 0
-0.5 -0.179278 0.414468 -1 0 0
-0.5 -0.203235 -0.224141 -1 0 0
-0.5 0.445529 -0.241736 -1 0 0
-0.5 0.313804 -0.191606 -1 0 0
-0.10412 0.5 -0.240006 0 1 0
-0.223766 0.5 -0.194221 0 1 0
0.394595 0.5 -0.241932 0 1 0
0.27275 0.5 -0.0602629 0 1 0
0.5 0.183102 0.306125 1 0 0
0.5 0.22264 -0.206632 1 0 0
-0.386533 -0.5 -0.149916 0 -1 0
-0.258205 -0.5 -0.107198 0 -1 0
0.303989 0.184111 -0.5 0 0 -1
-0.139528 0.105591 -0.5 0 0 -1
-0.246681 0.0513692 -0.5 0 0 -1
-0.240853 -0.300971 -0.5 0 0 -1
-0.281518 0.184229 0.5 0 0 1
0.187227 0.249868 0.5 0 0 1
0.101199 0.131014 0.5 0 0 1
0.234178 -0.357339 0.5 0 0 1
1.00893e-05 -0.254535 0.5 0 0 1
-0.263594 -0.302467 0.5 0 0 1
0.405884 -0.342201 -0.5 0 0 -1
-0.399216 -0.5 0.346271 0 -1 0
-0.276677 -0.5 0.390132 0 -1 0
0.5 -0.401719 0.351144 1 0 0
0.44264 0.5 0.251944 0 1 0
0.318566 0.5 0.281307 0 1 0
0.270371 0.5 0.392026 0 1 0
-0.5 0.303216 0.257368 -1 0 0
-0.5 0.261547 0.495202 -0.75208 0 0.598532
0.494112 0.16695 -0.5 0.573881 0 -0.76229
0.156812 -0.5 -0.0613614 0 -1 0
0.5 -0.354174 -0.0569307 1 0 0
0.5 0.180766 0.493975 0.763575 0 0.57078
-0.5 -0.0124988 -0.175273 -1 0 0
-0.5 -0.139332 0.189392 -1 0 0
-0.5 -0.297387 0.329705 -1 0 0
-0.125609 0.5 0.205105 0 1 0
-0.0611214 0.5 0.104765 0 1 0
-0.0536933 0.5 -0.396302 0 1 0
0.351886 0.5 -0.437149 0 1 0
0.0673481 0.5 -0.143911 0 1 0
0.5 0.394896 -0.047895 1 0 0
0.5 -0.373773 -0.42399 1 0 0
0.431846 -0.5 0.349556 0 -1 0
0.435198 -0.5 -0.132915 0 -1 0
0.310038 -0.5 -0.185711 0 -1 0
-0.0432065 0.383604 -0.5 0 0 -1
-0.269728 -0.0655826 -0.5 0 0 -1
-0.458412 0.383053 0.5 0 0 1
0.418305 0.307744 0.5 0 0 1
0.174733 0.405572 0.5 0 0 1
0.153851 -0.0891648 0.5 0 0 1
-0.441215 -0.115315 0.5 0 0 1
0.203572 -0.343593 -0.5 0 0 -1
0.438914 -0.121063 -0.5 0 0 -1
0.0794031 0.5 0.242759 0 1 0
0.110656 0.5 0.444066 0 1 0
-0.5 0.495874 0.193679 -0.74578 0.613742 0
-0.498936 -0.5 0.199376 -0.683027 -0.717081 0
-0.2484 0.059127 0.5 0 0 1
0.0509481 -0.5 -0.301989 0 -1 0
0.5 -0.217429 -0.0566392 1 0 0
-0.253342 0.5 0.213864 0 1 0
-0.5 -0.300123 0.468442 -1 0 0
-0.5 -0.259008 0.198286 -1 0 0
-0.0191643 0.0581435 -0.5 0 0 -1
0.0597341 0.0255666 0.5 0 0 1
0.0220463 -0.462053 0.5 0 0 1
