ply
format ascii 1.0
comment Created by Open3D
element vertex 500
property double x
property double y
property double z
property double nx
property double ny
property double nz
end_header
0.488692 0.5 0.475135 0.424734 0.786576 0.117964
-0.470607 -0.486118 0.5 -0.0343117 -0.385271 0.82951
-0.00706896 -0.485402 -0.5 0 -0.376782 -0.843932
0.00315417 -0.5 0.497438 0 -0.73112 0.649133
0.5 -0.246669 -0.010885 1 0 0
0.277514 -0.5 0.222977 0 -1 0
0.278834 -0.5 0.496415 0 -0.740711 0.625979
0.270314 -0.5 -0.27839 0 -1 0
-0.230247 -0.5 -0.0287208 0 -1 0
0.479825 0.272469 -0.5 0.250588 0 -0.896203
0.240994 -0.491989 -0.5 0 -0.52584 -0.78219
0.5 -0.496669 0.230002 0.738327 -0.631735 0
0.231868 0.5 0.221963 0 1 0
-0.5 0.232404 0.487371 -0.825471 0 0.42135
-0.358083 -0.5 0.103506 0 -1 0
-0.245673 -0.123996 0.5 0 0 1
0.0262224 0.39026 0.5 0 0 1
0.384921 0.259169 0.5 0 0 1
-0.102559 0.382083 0.5 0 0 1
-0.103739 0.155364 0.5 0 0 1
-0.269991 -0.104472 -0.5 0 0 -1
-0.382466 0.0149406 -0.5 0 0 -1
0.5 0.133693 -0.391311 1 0 0
-0.384851 0.5 -0.0292582 0 1 0
-0.139031 0.5 -0.278586 0 1 0
-0.38834 0.5 0.104005 0 1 0
-0.5 0.117004 -0.278165 -1 0 0
-0.5 -0.148024 -0.273239 -1 0 0
-0.5 0.373411 0.373312 -1 0 0
-0.5 0.356772 0.281268 -1 0 0
0.355892 0.5 0.411861 0 1 0
0.299536 0.5 0.494046 0 0.762909 0.572389
-0.35925 -0.5 0.285408 0 -1 0
0.410138 -0.360145 -0.5 0 0 -1
-0.310497 -0.307435 0.5 0 0 1
-0.301663 -0.496938 0.5 0 -0.637823 0.735805
0.0288307 -0.304146 0.5 0 0 1
0.207301 -0.295444 0.5 0 0 1
0.190771 0.0682099 0.5 0 0 1
-0.287916 0.0688473 0.5 0 0 1
-0.2113 0.200856 -0.5 0 0 -1
-0.215606 0.0918084 -0.5 0 0 -1
0.354733 0.208371 -0.5 0 0 -1
0.297022 0.0752794 -0.5 0 0 -1
-0.367199 -0.5 -0.210509 0 -1 0
0.199046 -0.5 -0.212536 0 -1 0
0.218517 -0.5 0.298831 0 -1 0
0.5 0.0640408 -0.126296 1 0 0
0.30703 0.5 -0.0235189 0 1 0
-0.20875 0.5 -0.0704412 0 1 0
-0.5 0.303381 -0.0160212 -1 0 0
-0.5 0.303571 -0.133007 -1 0 0
-0.5 -0.217922 -0.0854331 -1 0 0
-0.5 -0.0882017 -0.205196 -1 0 0
-0.5 -0.132206 0.424779 -1 0 0
-0.5 -0.018602 0.0600042 -1 0 0
-0.5 -0.380608 0.0547463 -1 0 0
-0.5 -0.250359 0.305331 -1 0 0
-0.5 0.296987 -0.376762 -1 0 0
-0.5 0.112304 -0.0790514 -1 0 0
-0.5 0.0414747 -0.153156 -1 0 0
-0.5 0.231611 -0.206465 -1 0 0
-0.207088 0.5 0.220457 0 1 0
-0.456804 0.5 -0.320083 0 1 0
-0.255278 0.5 -0.201269 0 1 0
-0.324429 0.5 -0.133619 0 1 0
0.0487969 0.5 -0.326161 0 1 0
0.184017 0.5 -0.397979 0 1 0
0.116853 0.5 -0.0742968 0 1 0
0.5 0.325601 0.0952294 1 0 0
0.5 0.40585 0.304292 1 0 0
0.5 0.462537 -0.0151664 1 0 0
0.5 -0.372272 -0.329203 1 0 0
0.5 -0.060429 -0.195524 1 0 0
0.5 -0.177727 -0.196927 1 0 0
0.276554 -0.5 0.0617942 0 -1 0
0.0722617 -0.5 -0.457598 0 -1 0
-0.0539878 -0.5 -0.213319 0 -1 0
0.0591199 0.270514 -0.5 0 0 -1
0.298417 0.377023 -0.5 0 0 -1
-0.377296 0.440297 -0.5 0 0 -1
-0.333061 -0.298144 -0.5 0 0 -1
-0.23822 0.211043 0.5 0 0 1
0.256623 0.197189 0.5 0 0 1
0.399704 0.465321 0.5 0 0 1
0.461635 0.316986 0.5 0 0 1
0.14838 -0.168472 0.5 0 0 1
-0.0455501 -0.174551 0.5 0 0 1
-0.426073 -0.0380859 0.5 0 0 1
0.246903 -0.288933 -0.5 0 0 -1
0.161116 -0.101953 -0.5 0 0 -1
0.473841 -0.039945 -0.5 0.115201 0 -0.952282
0.30337 -0.122166 -0.5 0 0 -1
-0.0589001 -0.5 0.175453 0 -1 0
0.5 -0.300406 0.247413 1 0 0
0.5 -0.40833 0.0494883 1 0 0
0.5 -0.0482969 0.117975 1 0 0
0.5 -0.119642 0.297955 1 0 0
0.109596 0.5 0.049508 0 1 0
0.186115 0.5 0.306449 0 1 0
-0.5 0.40863 0.182025 -1 0 0
0.5 -0.434959 0.160614 1 0 0
0.341211 -0.169644 0.5 0 0 1
-0.00655747 -0.167756 -0.5 0 0 -1
-0.000931394 0.341345 -0.5 0 0 -1
0.185201 0.317057 -0.5 0 0 -1
0.5 0.336974 -0.00420899 1 0 0
0.246074 0.5 -0.327827 0 1 0
-0.324607 0.5 0.179899 0 1 0
-0.5 0.184782 -0.0126226 -1 0 0
-0.5 0.4188 -0.323423 -1 0 0
-0.5 -0.0215533 0.417193 -1 0 0
-0.5 0.427261 -0.0148281 -1 0 0
0.5 -0.426429 -0.0816669 1 0 0
0.0728912 0.023005 0.5 0 0 1
0.5 -0.406406 0.414025 1 0 0
-0.5 0.409793 0.477298 -0.919887 0 0.193409
-0.406132 -0.5 0.426505 0 -1 0
-0.380996 -0.43285 0.5 0 0 1
0.0834799 -0.387652 0.5 0 0 1
-0.395437 0.0732986 0.5 0 0 1
-0.0699027 -0.399108 -0.5 0 0 -1
-0.0613755 0.106499 -0.5 0 0 -1
-0.120897 0.0292582 -0.5 0 0 -1
0.387497 0.109875 -0.5 0 0 -1
-0.384665 -0.5 -0.114117 0 -1 0
0.089902 -0.5 -0.0430728 0 -1 0
0.0319549 -0.5 0.406118 0 -1 0
0.5 0.1081 -0.0196571 1 0 0
0.5 0.0452389 0.405408 1 0 0
0.396592 0.5 -0.0810446 0 1 0
0.495456 0.5 -0.105204 0.604282 0.749698 0
-0.0883363 0.5 -0.0556971 0 1 0
-0.00246647 0.5 -0.109147 0 1 0
-0.0541186 0.5 0.397181 0 1 0
-0.5 0.401297 -0.108631 -1 0 0
-0.5 -0.0978452 -0.0108196 -1 0 0
-0.5 -0.123837 -0.110844 -1 0 0
-0.5 -0.115714 0.248266 -1 0 0
-0.5 -0.0598598 0.162954 -1 0 0
-0.5 -0.373178 -0.329168 -1 0 0
-0.5 -0.315272 -0.111143 -1 0 0
-0.5 0.215588 -0.114259 -1 0 0
-0.0579811 0.5 0.151167 0 1 0
-0.374836 0.5 0.431288 0 1 0
-0.298999 0.5 0.379323 0 1 0
-0.0511754 0.5 -0.314835 0 1 0
-0.357597 0.5 -0.336531 0 1 0
0.41173 0.5 -0.369556 0 1 0
0.14536 0.5 -0.310754 0 1 0
0.5 0.0577957 0.176819 1 0 0
0.5 0.260742 0.397555 1 0 0
0.5 0.0468107 -0.355936 1 0 0
0.5 0.290061 -0.10427 1 0 0
0.5 -0.192661 -0.322567 1 0 0
0.5 -0.205588 -0.108756 1 0 0
0.121886 -0.5 0.206889 0 -1 0
0.0249344 -0.5 0.145348 0 -1 0
0.352516 -0.5 0.161304 0 -1 0
0.36075 -0.5 0.435371 0 -1 0
0.0697867 -0.5 -0.367162 0 -1 0
0.350494 -0.5 -0.0146849 0 -1 0
-0.200661 -0.5 -0.322346 0 -1 0
-0.147012 -0.5 -0.0946689 0 -1 0
0.130718 0.082178 -0.5 0 0 -1
0.386216 0.295883 -0.5 0 0 -1
-0.318302 0.119466 -0.5 0 0 -1
-0.28818 -0.420459 -0.5 0 0 -1
-0.328372 -0.18994 -0.5 0 0 -1
-0.114616 -0.204942 -0.5 0 0 -1
-0.132158 0.0427768 0.5 0 0 1
-0.149678 0.300797 0.5 0 0 1
-0.427855 0.345523 0.5 0 0 1
-0.376673 0.267248 0.5 0 0 1
0.302535 0.11998 0.5 0 0 1
0.0523191 -0.171941 0.5 0 0 1
0.110607 -0.248004 0.5 0 0 1
-0.126343 -0.425906 0.5 0 0 1
-0.163284 -0.190244 0.5 0 0 1
-0.403588 -0.139619 0.5 0 0 1
-0.387325 -0.244495 0.5 0 0 1
0.243393 -0.401502 -0.5 0 0 -1
0.157297 -0.446474 -0.5 0 0 -1
0.154024 -0.22873 -0.5 0 0 -1
0.409736 -0.133251 -0.5 0 0 -1
-0.398782 -0.5 0.185078 0 -1 0
-0.153161 -0.5 0.148079 0 -1 0
-0.142176 -0.5 0.416545 0 -1 0
0.5 -0.125327 0.190818 1 0 0
0.5 -0.184234 0.404479 1 0 0
0.395317 0.5 0.189454 0 1 0
0.485 0.5 0.141236 0.367705 0.847692 0
0.155466 0.5 0.419284 0 1 0
-0.5 0.189376 0.142902 -1 0 0
-0.5 0.168025 0.404579 -1 0 0
-0.5 0.131371 0.300773 -1 0 0
-0.5 0.0284151 0.252858 -1 0 0
-0.5 0.0874954 0.0311022 -1 0 0
-0.5 0.0442744 0.147932 -1 0 0
-0.5 0.25465 0.0790094 -1 0 0
-0.5 0.308022 0.194705 -1 0 0
0.0831003 0.5 0.287404 0 1 0
0.0358159 0.5 0.404927 0 1 0
0.00228897 0.5 0.227989 0 1 0
0.41239 0.5 0.0129505 0 1 0
0.5 -0.159755 0.06446 1 0 0
0.5 -0.0774684 0.00222706 1 0 0
0.5 -0.024371 0.249088 1 0 0
0.5 -0.49508 0.0160564 0.75322 -0.595781 0
0.5 -0.263948 0.0971893 1 0 0
0.5 -0.346078 0.127637 1 0 0
-0.116127 -0.5 0.266285 0 -1 0
-0.137864 -0.5 0.0378347 0 -1 0
-0.0403245 -0.5 0.0817692 0 -1 0
-0.403516 -0.5 0.0184471 0 -1 0
-0.265285 -0.5 0.139557 0 -1 0
0.324092 -0.0234405 -0.5 0 0 -1
0.100691 -0.0202485 -0.5 0 0 -1
0.213978 -0.000687245 -0.5 0 0 -1
0.052558 -0.396373 -0.5 0 0 -1
0.0681937 -0.279571 -0.5 0 0 -1
0.136379 -0.339008 -0.5 0 0 -1
-0.3134 -0.187013 0.5 0 0 1
-0.3194 -0.0437674 0.5 0 0 1
-0.0628312 -0.0350336 0.5 0 0 1
-0.220422 -0.0277202 0.5 0 0 1
-0.131604 -0.0922863 0.5 0 0 1
-0.0202628 -0.395899 0.5 0 0 1
-0.0705908 -0.275499 0.5 0 0 1
-0.170332 -0.336355 0.5 0 0 1
0.244247 -0.184102 0.5 0 0 1
0.211135 -0.0262453 0.5 0 0 1
0.122739 -0.0783664 0.5 0 0 1
0.496191 -0.173755 0.5 0.620911 0 0.74281
0.477007 -0.374603 0.5 0.186833 0 0.922611
0.322935 -0.2598 0.5 0 0 1
0.140336 0.367033 0.5 0 0 1
0.245773 0.318782 0.5 0 0 1
0.206554 0.472461 0.5 0 0.0839638 0.965221
0.11115 0.489892 0.5 0 0.47839 0.801845
0.384597 0.3646 0.5 0 0 1
0.477739 0.0514938 0.5 0.203396 0 0.915751
0.493023 0.219631 0.5 0.549246 0 0.772495
-0.267592 0.298728 0.5 0 0 1
-0.0437602 0.28805 0.5 0 0 1
-0.0136301 0.485585 0.5 0 0.380925 0.842216
-0.192424 0.492922 0.5 0 0.546945 0.773448
-0.00877074 0.0643268 0.5 0 0 1
-0.0183353 0.179955 0.5 0 0 1
-0.236653 -0.227062 -0.5 0 0 -1
-0.198712 -0.0210495 -0.5 0 0 -1
-0.120203 -0.0922699 -0.5 0 0 -1
-0.466355 -0.063619 -0.5 0 0 -1
-0.361041 -0.0901437 -0.5 0 0 -1
-0.398958 -0.392451 -0.5 0 0 -1
-0.224802 0.316931 -0.5 0 0 -1
-0.207728 0.436113 -0.5 0 0 -1
-0.057176 0.43985 -0.5 0 0 -1
-0.121522 0.380553 -0.5 0 0 -1
-0.399208 0.349525 -0.5 0 0 -1
-0.474554 0.441841 -0.5 -0.131335 0 -0.945599
-0.294639 0.481488 -0.5 0 0.288222 -0.880614
-0.491856 0.0407063 -0.5 -0.522833 0 -0.783435
-0.412105 0.238808 -0.5 0 0 -1
-0.499525 0.191467 -0.5 -0.69637 0 -0.711554
-0.311234 0.224692 -0.5 0 0 -1
0.271941 0.260823 -0.5 0 0 -1
0.3625 0.495293 -0.5 0 0.600603 -0.751222
0.100713 0.358441 -0.5 0 0 -1
0.0662275 0.498637 -0.5 0 0.676263 -0.719883
0.0297147 0.10054 -0.5 0 0 -1
0.172729 0.22137 -0.5 0 0 -1
-0.152569 -0.5 -0.190619 0 -1 0
-0.146728 -0.5 -0.40064 0 -1 0
-0.247577 -0.5 -0.496403 0 -0.740816 -0.625726
-0.0274045 -0.5 -0.39354 0 -1 0
-0.0963121 -0.5 -0.478487 0 -0.908743 -0.220313
-0.40549 -0.5 -0.38709 0 -1 0
-0.44441 -0.5 -0.495164 0 -0.75243 -0.597688
-0.28753 -0.5 -0.410629 0 -1 0
-0.358573 -0.5 -0.476671 0 -0.92576 -0.17923
-0.310532 -0.5 -0.308114 0 -1 0
0.315881 -0.5 -0.183343 0 -1 0
0.317122 -0.5 -0.427116 0 -1 0
0.406847 -0.5 -0.460866 0 -1 0
0.427866 -0.5 -0.353609 0 -1 0
0.170334 -0.5 -0.315685 0 -1 0
0.402438 -0.5 0.254624 0 -1 0
0.497772 -0.5 0.478118 0.627043 -0.677463 0.182319
0.446088 -0.5 0.38862 0 -1 0
0.0681775 -0.5 0.0640249 0 -1 0
0.177154 -0.5 0.0100161 0 -1 0
0.5 -0.0625661 -0.10815 1 0 0
0.5 -0.1275 -0.384914 1 0 0
0.5 -0.131233 -0.490101 0.799884 0 -0.483122
0.5 -0.0418526 -0.410623 1 0 0
0.5 -0.403161 -0.445974 1 0 0
0.5 -0.497692 -0.49649 0.601508 -0.549285 -0.522083
0.5 -0.331177 -0.499264 0.714004 0 -0.690456
0.5 -0.264777 -0.259372 1 0 0
0.5 0.299727 -0.196632 1 0 0
0.5 0.406943 -0.0850187 1 0 0
0.5 0.365538 -0.38003 1 0 0
0.5 0.473194 -0.369129 0.958346 0.100561 0
0.5 0.0580275 -0.455331 1 0 0
0.5 0.235343 -0.39389 1 0 0
0.5 0.216317 -0.28289 1 0 0
0.5 0.302945 0.308551 1 0 0
0.5 0.498819 0.257524 0.718172 0.680394 0
0.5 0.392703 0.399457 1 0 0
0.5 0.411436 0.163606 1 0 0
0.5 0.238336 0.0266304 1 0 0
0.5 0.249361 0.157163 1 0 0
0.196282 0.5 -0.239234 0 1 0
0.0102723 0.5 -0.226759 0 1 0
0.0302829 0.5 -0.0286769 0 1 0
0.27217 0.5 -0.469347 0 0.994408 -0.0134999
-0.35356 0.5 -0.245857 0 1 0
-0.476601 0.5 -0.0627133 -0.177649 0.926415 0
-0.437582 0.5 -0.430799 0 1 0
-0.11978 0.5 -0.381476 0 1 0
-0.207819 0.5 -0.431916 0 1 0
-0.129916 0.5 -0.47917 0 0.902336 -0.235782
-0.241532 0.5 -0.317113 0 1 0
-0.288171 0.5 0.282548 0 1 0
-0.486273 0.5 0.448286 -0.396492 0.835768 0
-0.311297 0.5 0.0293394 0 1 0
-0.102148 0.5 0.0603518 0 1 0
-0.240172 0.5 0.113987 0 1 0
-0.18567 0.5 0.0227131 0 1 0
-0.5 0.128795 -0.18334 -1 0 0
-0.5 0.0226606 -0.0513697 -1 0 0
-0.5 0.0375558 -0.344487 -1 0 0
-0.5 0.383495 -0.428933 -1 0 0
-0.5 0.313752 -0.491762 -0.78432 0 -0.520696
-0.5 -0.31769 -0.239445 -1 0 0
-0.5 -0.453691 -0.247705 -1 0 0
-0.5 -0.366324 -0.44109 -1 0 0
-0.5 -0.292019 -0.499294 -0.713726 0 -0.691128
-0.5 -0.489314 -0.415301 -0.807266 -0.465302 0
-0.5 -0.190526 -0.494733 -0.756474 0 -0.587925
-0.5 -0.493859 0.0748595 -0.764661 -0.568159 0
-0.5 -0.478273 0.1655 -0.910744 -0.215484 0
-0.5 -0.382176 0.145365 -1 0 0
-0.5 -0.187731 0.0179935 -1 0 0
-0.5 -0.195455 0.204302 -1 0 0
-0.5 -0.0871329 0.342322 -1 0 0
-0.5 -0.228893 0.407896 -1 0 0
-0.5 -0.247931 -0.179455 -1 0 0
-0.5 0.3891 -0.202346 -1 0 0
-0.5 0.488641 -0.234839 -0.813568 0.450086 0
-0.211502 0.5 0.405062 0 1 0
-0.0768082 0.5 -0.173845 0 1 0
0.389398 0.5 -0.186854 0 1 0
0.30127 0.5 -0.156432 0 1 0
0.5 0.0700913 0.315272 1 0 0
0.5 0.16506 0.432142 1 0 0
0.5 0.106763 -0.212459 1 0 0
0.5 0.021417 -0.24799 1 0 0
0.5 0.209945 -0.177278 1 0 0
0.5 0.166489 -0.0959466 1 0 0
0.5 -0.279984 -0.165337 1 0 0
0.5 -0.366055 -0.225867 1 0 0
0.0980786 -0.5 0.302499 0 -1 0
0.00258973 -0.5 0.263524 0 -1 0
0.13606 -0.5 0.406233 0 -1 0
0.0882952 -0.5 -0.244314 0 -1 0
0.173675 -0.5 -0.103388 0 -1 0
-0.258279 -0.5 -0.220414 0 -1 0
-0.277417 -0.5 -0.124018 0 -1 0
0.250022 0.160921 -0.5 0 0 -1
-0.0317455 0.220142 -0.5 0 0 -1
-0.184896 -0.43277 -0.5 0 0 -1
-0.243501 -0.341251 -0.5 0 0 -1
-0.0360693 -0.282145 -0.5 0 0 -1
0.0717923 0.241844 0.5 0 0 1
-0.259163 -0.386806 0.5 0 0 1
-0.406623 -0.339195 0.5 0 0 1
-0.26775 -0.5 0.285152 0 -1 0
-0.316966 -0.5 0.376425 0 -1 0
0.5 -0.278802 0.479769 0.896727 0 0.249322
0.378355 0.5 0.318703 0 1 0
0.283708 0.5 0.314349 0 1 0
0.262477 0.5 0.406065 0 1 0
-0.5 0.461873 0.27612 -1 0 0
0.465358 0.5 0.374683 0 1 0
0.5 -0.326993 0.373547 1 0 0
0.5 -0.4518 0.320101 1 0 0
-0.480337 -0.5 0.332994 -0.262185 -0.891399 0
0.342249 -0.440338 -0.5 0 0 -1
0.184395 -0.469676 0.5 0 -0.020945 0.991324
0.0593646 0.125811 0.5 0 0 1
0.162956 0.160022 0.5 0 0 1
-0.438305 0.155778 0.5 0 0 1
-0.343626 0.159519 0.5 0 0 1
-0.147231 -0.317333 -0.5 0 0 -1
0.484858 0.163774 -0.5 0.364481 0 -0.849027
-0.326859 -0.5 -0.044849 0 -1 0
-0.480405 -0.5 -0.159399 -0.263731 -0.890759 0
0.0600532 -0.5 -0.135772 0 -1 0
0.5 -0.336295 -0.0258324 1 0 0
0.5 -0.458417 -0.167796 1 0 0
0.5 0.173673 0.333925 1 0 0
-0.166735 0.5 -0.17528 0 1 0
-0.153044 0.5 0.320315 0 1 0
-0.5 -0.126605 0.0911232 -1 0 0
-0.5 -0.412758 0.244201 -1 0 0
-0.5 -0.389605 0.439202 -1 0 0
-0.5 -0.391185 0.335209 -1 0 0
-0.5 -0.186654 -0.383596 -1 0 0
-0.5 -0.0128609 -0.418657 -1 0 0
-0.5 -0.290132 -0.38894 -1 0 0
-0.5 -0.406367 -0.0436686 -1 0 0
-0.5 -0.413389 -0.149495 -1 0 0
-0.5 0.323074 -0.27186 -1 0 0
-0.5 0.115542 -0.436368 -1 0 0
-0.5 0.206501 -0.404109 -1 0 0
-0.00103701 0.5 0.0778552 0 1 0
-0.420014 0.5 0.243182 0 1 0
-0.408418 0.5 0.345667 0 1 0
-0.0213661 0.5 -0.434536 0 1 0
-0.29807 0.5 -0.402943 0 1 0
-0.416541 0.5 -0.178463 0 1 0
0.333557 0.5 -0.277389 0 1 0
0.314915 0.5 -0.382777 0 1 0
0.104109 0.5 -0.173708 0 1 0
0.19928 0.5 -0.13924 0 1 0
0.5 0.160213 0.224826 1 0 0
0.5 0.170339 0.0878639 1 0 0
0.5 0.0439878 0.080131 1 0 0
0.5 0.415905 0.0752835 1 0 0
0.5 0.411044 0.49787 0.727072 0 0.658907
0.5 0.415472 -0.273377 1 0 0
0.5 0.410044 -0.175906 1 0 0
0.5 -0.313674 -0.405067 1 0 0
0.5 -0.0646329 -0.298898 1 0 0
0.5 -0.224833 -0.423075 1 0 0
0.186742 -0.5 0.113813 0 -1 0
0.396643 -0.5 0.0665864 0 -1 0
0.302896 -0.5 0.363138 0 -1 0
0.166421 -0.5 -0.413418 0 -1 0
0.412438 -0.5 -0.257616 0 -1 0
0.429705 -0.5 -0.053397 0 -1 0
0.422169 -0.5 -0.153768 0 -1 0
-0.116598 -0.5 -0.286808 0 -1 0
0.093546 0.184497 -0.5 0 0 -1
0.189536 0.421304 -0.5 0 0 -1
0.494496 0.425317 -0.5 0.58256 0 -0.758696
-0.41986 0.140238 -0.5 0 0 -1
-0.283855 0.381397 -0.5 0 0 -1
-0.127165 0.282004 -0.5 0 0 -1
-0.414866 -0.23541 -0.5 0 0 -1
-0.0125225 -0.0639071 -0.5 0 0 -1
-0.199119 0.129879 0.5 0 0 1
-0.217317 0.390879 0.5 0 0 1
-0.337502 0.408893 0.5 0 0 1
0.420865 0.146223 0.5 0 0 1
0.381234 0.054116 0.5 0 0 1
0.304252 0.410477 0.5 0 0 1
0.167981 0.262643 0.5 0 0 1
0.284449 -0.373673 0.5 0 0 1
0.39224 -0.330502 0.5 0 0 1
0.394325 -0.439073 0.5 0 0 1
0.416098 -0.0697288 0.5 0 0 1
0.0155673 -0.0893512 0.5 0 0 1
0.3428 -0.245745 -0.5 0 0 -1
-0.0673939 -0.5 0.356556 0 -1 0
-0.216039 -0.5 0.367854 0 -1 0
0.5 -0.0680459 0.449685 1 0 0
0.5 -0.211496 0.315569 1 0 0
0.340602 0.5 0.113878 0 1 0
0.114225 0.5 0.191747 0 1 0
0.236375 0.5 0.064968 0 1 0
-0.5 0.356059 0.0847082 -1 0 0
-0.5 0.447537 0.0831403 -1 0 0
-0.5 0.120629 0.208822 -1 0 0
-0.5 0.076697 0.462398 -1 0 0
-0.5 0.240077 0.340281 -1 0 0
-0.5 0.21504 0.235557 -1 0 0
0.5 -0.225762 0.187837 1 0 0
0.446945 -0.233163 -0.5 0 0 -1
-0.471607 -0.212526 0.5 -0.0646362 0 0.973227
-0.202038 -0.480565 0.5 0 -0.267345 0.889262
0.301557 0.00688435 0.5 0 0 1
-0.284717 0.00265108 -0.5 0 0 -1
-0.440959 -0.5 -0.30616 0 -1 0
0.270929 -0.5 -0.0604173 0 -1 0
0.00220395 -0.5 -0.296339 0 -1 0
0.5 -0.458955 -0.284495 1 0 0
0.207524 0.5 -0.0233796 0 1 0
0.449757 0.5 -0.277507 0 1 0
-0.283745 0.5 0.481143 0 0.88385 0.280411
-0.5 0.237366 -0.307736 -1 0 0
-0.5 -0.292254 -0.00500771 -1 0 0
-0.5 -0.0545312 -0.303644 -1 0 0
-0.5 -0.300075 0.475423 -0.937455 0 0.150998
-0.5 -0.303028 0.216742 -1 0 0
0.5 0.015426 -0.0315538 1 0 0
0.00086628 -0.5 -0.0572468 0 -1 0
-0.461704 -0.5 -0.0615312 0 -1 0
